# .PCD v0.7 - Point Cloud Data file format
VERSION 0.7
FIELDS x y z
SIZE 4 4 4
TYPE F F F
COUNT 1 1 1
WIDTH 1307
HEIGHT 1
VIEWPOINT 0 0 0 1 0 0 0
POINTS 1307
DATA ascii
-0.051013995 -0.18711936 -0.055999964
-0.048339717 -0.18677713 -0.057000041
-0.0057136999 -0.18853332 -0.056333333
-0.053318001 -0.18375 -0.055000007
-0.050905664 -0.18365933 -0.056199938
-0.0484965 -0.18411 -0.057000011
-0.053670399 -0.18004601 -0.055000007
-0.050988752 -0.1802125 -0.056249976
-0.053980201 -0.176824 -0.055399984
-0.051375579 -0.17651916 -0.05675
-0.054502003 -0.17348336 -0.055466652
-0.051641777 -0.17306666 -0.057000011
-0.054566439 -0.16985627 -0.055687517
-0.052051403 -0.16967399 -0.057000011
0.0060189334 -0.16924334 -0.055333316
0.007491 -0.16965 -0.055000007
0.012779 -0.16877 -0.055000007
-0.056843001 -0.16611999 -0.055000007
-0.054504685 -0.16614813 -0.056250006
-0.052227002 -0.16677499 -0.057000011
0.0058897706 -0.16630797 -0.056300014
0.0087076854 -0.16618 -0.055230767
0.011720998 -0.16656299 -0.055000007
-0.056843001 -0.16304 -0.055000007
-0.054539133 -0.16256134 -0.05673328
0.0061443993 -0.16238749 -0.057000041
0.0087863188 -0.16252875 -0.056562454
0.012328 -0.16289565 -0.055437475
0.014541 -0.16304 -0.055000007
-0.056843001 -0.15951249 -0.055000007
-0.055069398 -0.15914598 -0.056700021
0.0065833 -0.15975 -0.057000011
0.0087775998 -0.15887502 -0.056999952
0.012302876 -0.15905502 -0.056437433
0.014910714 -0.15961143 -0.055285692
-0.05704267 -0.15543833 -0.05583331
-0.055298999 -0.15536499 -0.057000041
0.0090814317 -0.15539846 -0.056999981
0.012305374 -0.15556127 -0.056374967
0.014541 -0.15687001 -0.055000007
-0.057600755 -0.1521325 -0.056083351
-0.055445332 -0.15214498 -0.057000011
0.0092164678 -0.15185249 -0.056999981
0.012305499 -0.15204439 -0.056374967
0.014541 -0.15201999 -0.055000007
-0.057737 -0.14865153 -0.056076884
-0.055737998 -0.14834249 -0.057000011
0.0096552335 -0.14878167 -0.057000011
0.0122905 -0.14836125 -0.056937456
0.014694199 -0.14843599 -0.055799991
-0.057870209 -0.14507855 -0.055928588
-0.055737998 -0.14483 -0.057000011
0.010094 -0.14614999 -0.057000011
0.012376533 -0.14485934 -0.056999952
0.015646502 -0.14501643 -0.055928558
-0.060369 -0.14057 -0.055000007
-0.058159433 -0.14175287 -0.056142807
-0.055737998 -0.14263999 -0.057000011
0.012727667 -0.14175999 -0.057000011
0.015915934 -0.14165334 -0.05613333
0.018066 -0.14101 -0.055000007
-0.060369 -0.1388 -0.055000007
-0.057935201 -0.13844067 -0.05673331
-0.055737998 -0.13737001 -0.057000011
0.012727667 -0.13868749 -0.056999981
0.015853068 -0.13833734 -0.056266606
0.018066 -0.13792001 -0.055000007
-0.057977382 -0.13505939 -0.056624949
-0.055737998 -0.13561499 -0.057000011
0.012807455 -0.13521726 -0.056999981
0.015816499 -0.13487375 -0.056499958
0.018066 -0.13484 -0.055000007
-0.05799225 -0.13157624 -0.056499958
0.012852999 -0.13235286 -0.057000041
0.015820876 -0.13138999 -0.056374967
0.018066 -0.13263001 -0.055000007
-0.058024447 -0.12791389 -0.0562222
-0.055737998 -0.12771666 -0.057000011
0.015684143 -0.12804 -0.056714267
0.018066 -0.12779 -0.055000007
-0.057845008 -0.12422643 -0.056142807
-0.055737998 -0.12464251 -0.057000011
0.013605 -0.12552001 -0.057000011
0.01579975 -0.1246425 -0.056999952
0.018348001 -0.12388334 -0.055333316
-0.05800879 -0.12084929 -0.056357145
-0.055737998 -0.1211325 -0.057000011
0.016238555 -0.12128001 -0.057000011
0.018700127 -0.1205575 -0.055749983
-0.060369 -0.11765 -0.055000007
-0.058030836 -0.11737777 -0.056166679
-0.055562396 -0.11770801 -0.057000011
0.016238667 -0.11762 -0.056999981
0.019118002 -0.11726499 -0.056333333
-0.058072265 -0.11376667 -0.056066632
-0.055737998 -0.11411 -0.057000011
0.016165501 -0.11425666 -0.056999981
0.01932125 -0.1139475 -0.05674997
-0.058006749 -0.1102975 -0.056374967
-0.055737998 -0.11148 -0.057000011
0.016940601 -0.110864 -0.057000011
0.019358177 -0.11038001 -0.056470573
-0.058021501 -0.10680812 -0.056249976
0.017116001 -0.10694 -0.057000011
0.019297998 -0.10685066 -0.056599945
0.0219444 -0.10602 -0.055000007
-0.058447365 -0.10326999 -0.056363642
0.017116001 -0.10401666 -0.057000011
0.019225931 -0.10350333 -0.056933284
0.022016 -0.10303376 -0.05537501
-0.060369 -0.098704502 -0.055000007
-0.058282383 -0.099770077 -0.056615323
0.019311 -0.10006401 -0.056999952
0.022010501 -0.099487625 -0.055500001
-0.060369 -0.097383 -0.055000007
-0.058347713 -0.096217565 -0.056142837
-0.055737998 -0.095238 -0.057000011
0.019750001 -0.096554495 -0.056999981
0.022330888 -0.095819555 -0.055999994
-0.060369 -0.092535749 -0.055000007
-0.057849713 -0.092921853 -0.05664286
-0.055737998 -0.094360001 -0.057000011
0.0199256 -0.093043305 -0.057000011
0.022680571 -0.09247572 -0.055999964
-0.060278252 -0.088877499 -0.055750012
-0.058017176 -0.089413457 -0.056941122
0.019829817 -0.089651905 -0.056999981
0.022877874 -0.08908543 -0.055812478
-0.060369 -0.086806998 -0.055000007
-0.058213923 -0.086030357 -0.056214273
0.020251716 -0.08620929 -0.057000041
0.022764307 -0.08587607 -0.056076884
-0.060369 -0.081519663 -0.055000007
-0.058431 -0.082592994 -0.056499988
0.020628 -0.083826996 -0.057000011
0.022769133 -0.082367405 -0.056266636
-0.060697198 -0.078315601 -0.055199981
-0.058810499 -0.078999005 -0.057000041
0.020628 -0.080316 -0.057000011
0.022539999 -0.078970462 -0.056538433
-0.060247999 -0.075639501 -0.055999994
-0.058810495 -0.075488001 -0.057000041
0.020628 -0.075049005 -0.057000011
0.022834001 -0.075525872 -0.05674994
0.025117001 -0.07491 -0.055000007
-0.060718749 -0.071717374 -0.055750012
-0.058810499 -0.071976997 -0.057000041
0.023191834 -0.07220874 -0.056916654
0.025598999 -0.071511999 -0.055428594
-0.06084878 -0.067982219 -0.055888951
-0.058873143 -0.068654142 -0.057000041
0.023762714 -0.068277851 -0.057000041
0.025526 -0.068214253 -0.055624992
-0.06108173 -0.064679816 -0.055727273
-0.058810499 -0.06495475 -0.057000041
0.023553666 -0.064808451 -0.057000011
0.025636125 -0.064693749 -0.055624992
-0.061113499 -0.061376799 -0.055399984
-0.058810495 -0.06144375 -0.057000041
0.023762714 -0.061631858 -0.057000041
0.025513126 -0.061582752 -0.055874974
-0.060703374 -0.058064379 -0.055875003
-0.059248999 -0.057932749 -0.057000011
0.0239195 -0.058591001 -0.057000011
0.026078463 -0.057938769 -0.056076884
-0.061097667 -0.054504082 -0.056250006
0.026363749 -0.054483242 -0.056437463
0.028642001 -0.053318001 -0.055000007
-0.063011996 -0.05067433 -0.055000007
-0.061193001 -0.051096499 -0.056900024
0.026528999 -0.050925352 -0.056857109
0.0286135 -0.051064752 -0.055500001
-0.063011996 -0.048912 -0.055000007
-0.061825812 -0.047296908 -0.056818187
0.026947599 -0.047575004 -0.057000011
0.028887667 -0.047217503 -0.05583331
-0.063011996 -0.043183498 -0.055000007
-0.061506167 -0.043932248 -0.056499988
0.027070777 -0.044043995 -0.056888908
0.029061126 -0.044031378 -0.05537498
-0.06120827 -0.040338457 -0.055999964
0.027217872 -0.040387377 -0.05687505
0.02901957 -0.040602427 -0.055000007
-0.063011996 -0.035691999 -0.055000007
-0.06105667 -0.036897164 -0.056583315
0.027210999 -0.036866248 -0.057000041
0.029197445 -0.036826998 -0.055555582
-0.063011996 -0.033489 -0.055000007
-0.061129913 -0.033499181 -0.056636333
0.027210999 -0.033355247 -0.057000041
0.02937991 -0.033375904 -0.056090891
-0.063011996 -0.028642001 -0.055000007
-0.061882365 -0.030002089 -0.056363583
0.027650001 -0.029844001 -0.057000011
0.029002879 -0.029881125 -0.056374997
-0.063011996 -0.026438748 -0.055000007
-0.061505999 -0.026359502 -0.056500018
0.027650001 -0.026333001 -0.057000011
0.029385274 -0.026266001 -0.055999964
-0.063011996 -0.02291375 -0.055000007
-0.061506003 -0.022844875 -0.056500018
0.0274744 -0.0229098 -0.057000011
0.029809266 -0.022773733 -0.05613333
0.032166999 -0.021592 -0.055000007
-0.063011996 -0.019388251 -0.055000007
-0.061505999 -0.01933025 -0.056500018
0.027650001 -0.019750001 -0.057000011
0.029851751 -0.019315997 -0.056874961
0.032304801 -0.019101799 -0.055600017
-0.063232496 -0.015863251 -0.055000007
-0.061694626 -0.01580775 -0.05675
0.030032145 -0.015925143 -0.056999952
0.0325105 -0.015816251 -0.056500018
-0.063894004 -0.012485 -0.055000007
-0.06233725 -0.01229225 -0.05687505
0.029844001 -0.012288751 -0.056999952
0.032317601 -0.0125918 -0.055399984
-0.063894004 -0.0083722994 -0.055000007
-0.062353 -0.0087815626 -0.056750059
0.030293336 -0.0087802419 -0.056833327
-0.063894004 -0.0052877502 -0.055000007
-0.062231224 -0.0051250216 -0.056555569
0.030722 -0.0052666245 -0.057000041
0.032124329 -0.0048412331 -0.055666655
-0.063894004 -0.0017625625 -0.055000007
-0.062368751 -0.0017565301 -0.056625038
0.030722 -0.0017555451 -0.057000041
0.032134999 -0.0017616899 -0.055499971
-0.062384501 0.0017573051 -0.056500018
0.030612251 0.0015361076 -0.057000041
0.032150999 0.0017623401 -0.055249989
-0.06240214 0.0050796573 -0.056857139
0.031160999 0.005266625 -0.057000011
0.032118998 0.0052791499 -0.055750012
-0.062467668 0.0090701664 -0.057000011
0.031161001 0.0089238668 -0.057000011
0.032498859 0.0089894002 -0.055714279
-0.063011996 0.0132195 -0.055000007
-0.061882753 0.012288749 -0.057000041
0.030868331 0.012581333 -0.057000011
0.032428667 0.012325499 -0.055499971
-0.063011996 0.014541 -0.055000007
-0.061475001 0.015807251 -0.056750029
0.030722 0.015799752 -0.057000041
0.032407332 0.015542501 -0.055833369
-0.063011996 0.0202695 -0.055000007
-0.061443999 0.019311002 -0.057000041
0.030722 0.019311 -0.057000041
0.032134999 0.019369749 -0.055499971
-0.063011996 0.023794999 -0.055000007
-0.061744798 0.022659998 -0.056699991
0.030464802 0.023002399 -0.056900024
-0.063011996 0.025117001 -0.055000007
-0.061267398 0.026545901 -0.056300014
0.030167 0.026450617 -0.056692302
0.032166999 0.025998 -0.055000007
-0.060611751 0.029866749 -0.056625009
-0.059248999 0.030282998 -0.057000011
0.029875124 0.029873751 -0.056499988
-0.060608 0.03322443 -0.056142837
-0.059248999 0.033355251 -0.057000011
0.030080929 0.033345141 -0.056214273
-0.060247999 0.036940247 -0.055999994
-0.059073605 0.0371296 -0.057000011
0.029440584 0.036909666 -0.056416661
-0.060369 0.040539499 -0.055000007
-0.058594801 0.040585302 -0.056599975
0.027650001 0.040816002 -0.057000011
0.029152112 0.040284555 -0.056333363
-0.060369 0.043183498 -0.055000007
-0.058367267 0.043824729 -0.056363642
0.0274744 0.044151597 -0.057000011
0.029024752 0.043977372 -0.056000024
-0.058020499 0.047470503 -0.056249976
0.027070776 0.047459111 -0.056888908
0.0289944 0.046972804 -0.055000007
-0.057523254 0.050935909 -0.05675
0.027231624 0.050948374 -0.056625009
-0.057923801 0.054406598 -0.056333303
-0.055737998 0.055298999 -0.057000011
0.026975298 0.054652296 -0.056499988
0.028642001 0.054198999 -0.055000007
-0.057445396 0.057884604 -0.055899978
-0.055445332 0.057932835 -0.057000011
0.026074462 0.057929929 -0.056153834
-0.056843001 0.061250001 -0.055000007
-0.055409711 0.061685 -0.056571424
0.024139 0.061882999 -0.057000011
0.025862275 0.061435726 -0.056090891
-0.056843001 0.064774998 -0.055000007
-0.055202555 0.065159 -0.056555569
0.024139 0.065393664 -0.057000011
0.026113141 0.064903356 -0.056428552
-0.056843001 0.067419 -0.055000007
-0.054811087 0.068383545 -0.05672729
0.026344132 0.068243794 -0.056266606
-0.054971997 0.071827747 -0.055999964
0.024139 0.071977004 -0.057000011
0.026142307 0.07179454 -0.056153804
-0.054408129 0.075324669 -0.056333303
-0.052227002 0.076366 -0.057000011
0.023762714 0.075676143 -0.057000041
0.025757112 0.075118452 -0.055888891
-0.05400246 0.079023004 -0.056090921
-0.052227002 0.078999005 -0.057000011
0.023846334 0.078999005 -0.057000011
0.025377333 0.078622833 -0.055666655
-0.053366594 0.082378998 -0.056200027
-0.052051403 0.082773402 -0.057000011
0.023340819 0.082629733 -0.056999981
0.0250795 0.082717247 -0.055750012
-0.053318001 0.085045002 -0.055000007
-0.051524624 0.086019129 -0.056375027
0.023133308 0.085946605 -0.056846142
0.025083667 0.085812002 -0.055666655
-0.051036861 0.089142799 -0.056066662
-0.048716001 0.089093 -0.057000011
0.02318991 0.089445278 -0.056818187
0.025092 0.088922247 -0.055500001
-0.050940134 0.092521273 -0.055866629
-0.048715997 0.093481995 -0.057000011
0.023005614 0.09286385 -0.056692302
0.025117001 0.092094995 -0.055000007
-0.050574329 0.096161403 -0.055999964
-0.048716001 0.096554503 -0.057000011
0.022867648 0.096297562 -0.056588203
0.025117001 0.097383 -0.055000007
-0.049988251 0.099537753 -0.055249989
-0.048384406 0.10019319 -0.056800008
0.020452399 0.10032719 -0.057000011
0.022831 0.099882506 -0.056812465
0.025092 0.0990455 -0.055500001
-0.049793001 0.10223 -0.055000007
-0.048109334 0.10339666 -0.05622226
0.020189 0.10357749 -0.057000041
0.022818202 0.10336533 -0.056466609
-0.049759667 0.10700667 -0.055333316
-0.04777823 0.10681153 -0.056230754
0.020189 0.1070875 -0.057000041
0.022531889 0.10639777 -0.055888891
-0.049793001 0.11016 -0.055000007
-0.047471173 0.11036706 -0.056529433
0.019754101 0.110622 -0.056900024
0.021856502 0.10971999 -0.055666655
-0.047375821 0.11366 -0.055999964
-0.045029398 0.114374 -0.057000011
0.019338699 0.113831 -0.056300014
-0.046530668 0.11610667 -0.055333316
-0.044003461 0.11769076 -0.056846142
0.017116001 0.11806 -0.057000011
0.018727401 0.117106 -0.056200027
-0.043965641 0.12090143 -0.056142837
-0.041342802 0.121746 -0.057000011
0.016683334 0.12117166 -0.056833357
0.018921901 0.12083399 -0.055700004
-0.04394969 0.12445845 -0.055153847
-0.0406822 0.124415 -0.056499988
-0.038183 0.12508 -0.057000011
0.016695 0.12300999 -0.056500018
0.018923 0.12277333 -0.055666655
-0.056977112 -0.20783001 -0.051222265
-0.05505275 -0.20738751 -0.053250015
0.0083974004 -0.20684001 -0.053499997
0.012803999 -0.20708001 -0.05400002
0.016370399 -0.20739999 -0.053000033
0.018359801 -0.20780599 -0.051800013
-0.057172999 -0.20459875 -0.05112505
-0.054072123 -0.20478377 -0.053125024
-0.051658999 -0.20354 -0.05400002
0.009056747 -0.20450266 -0.052800059
0.012476278 -0.20467669 -0.053388953
0.015771823 -0.20490825 -0.052176476
0.018211 -0.20565 -0.050999999
-0.056989551 -0.20175889 -0.051111102
-0.053910002 -0.20128067 -0.053333342
-0.051658999 -0.20133752 -0.05400002
0.0091655534 -0.20123461 -0.052307725
0.012443999 -0.20118211 -0.053285837
0.015967751 -0.20135437 -0.051749945
0.018566201 -0.201032 -0.050999999
-0.05741746 -0.19807383 -0.051153839
-0.054390166 -0.197805 -0.053250074
0.0063664666 -0.19735999 -0.050999999
0.0089329835 -0.19768251 -0.052250028
0.012328539 -0.19783926 -0.05400002
0.01608043 -0.19781211 -0.052214324
0.018654998 -0.19809999 -0.050999999
-0.057400081 -0.19446152 -0.051307619
-0.054351605 -0.194428 -0.053600073
-0.0057628001 -0.19283 -0.051999986
0.0066626002 -0.19543499 -0.050999999
0.0092083178 -0.19470091 -0.053000093
0.012362502 -0.1942725 -0.05400002
0.015933765 -0.19449823 -0.052000046
0.018507 -0.19484167 -0.050999999
-0.059962999 -0.18966 -0.050999999
-0.057677787 -0.19077717 -0.051571369
-0.054344337 -0.19086833 -0.053666711
-0.0057513001 -0.19156 -0.053000033
0.010155 -0.19161999 -0.05400002
0.012427573 -0.19095571 -0.053928614
0.015989268 -0.19093935 -0.051999986
0.019440999 -0.19068693 -0.050999939
-0.059962999 -0.18744001 -0.050999999
-0.057686001 -0.18747564 -0.051499963
-0.054335505 -0.18729998 -0.053750038
0.012810167 -0.18729998 -0.053750038
0.015914764 -0.18718824 -0.052588224
0.019543499 -0.18744002 -0.050999939
0.021986252 -0.186775 -0.050999999
-0.059962999 -0.18433 -0.050999999
-0.057674333 -0.18389399 -0.051866651
-0.05438827 -0.18363456 -0.05400002
0.012684334 -0.18414415 -0.052916765
0.015967688 -0.18383248 -0.051750004
0.019416573 -0.18407571 -0.050999939
0.02198625 -0.18455251 -0.050999999
-0.059962999 -0.179445 -0.050999999
-0.057601377 -0.18032874 -0.052250028
-0.055014402 -0.18040802 -0.05400002
0.010206 -0.1801575 -0.051500022
0.012480733 -0.18048866 -0.052800059
0.016006066 -0.18049331 -0.051466703
0.018655002 -0.180335 -0.050999999
-0.060406998 -0.17678 -0.050999999
-0.05751662 -0.17697001 -0.052692354
-0.055190999 -0.17794 -0.05400002
0.0099591501 -0.17638999 -0.052750051
0.012384 -0.17692062 -0.053125083
0.015956188 -0.17682812 -0.052125037
0.018655 -0.17692667 -0.050999999
-0.060811665 -0.17311083 -0.051333308
-0.057757996 -0.1732723 -0.053538561
0.0092736995 -0.17310666 -0.053916693
0.01236875 -0.17316501 -0.053750038
0.015926061 -0.17295939 -0.053062558
0.019010503 -0.172958 -0.050999939
-0.060831498 -0.16961916 -0.051166654
-0.057879001 -0.16966002 -0.053666711
0.0092720333 -0.16954751 -0.05400002
0.012436082 -0.16991585 -0.05400002
0.015792428 -0.16959931 -0.053285778
0.019517377 -0.1694425 -0.051687419
0.022060335 -0.16952665 -0.050999999
-0.061131995 -0.16594668 -0.051749945
-0.058296122 -0.16605626 -0.053875029
0.0133338 -0.16663399 -0.05400002
0.016002933 -0.16630132 -0.053400099
0.019654572 -0.16616856 -0.051428497
0.022319499 -0.16589874 -0.050999999
-0.063516997 -0.16167501 -0.050999999
-0.061205994 -0.16276623 -0.051749945
-0.0582815 -0.1624825 -0.05400002
0.016429365 -0.16271999 -0.053636432
0.019525124 -0.16284811 -0.051499963
0.021764001 -0.16167501 -0.050999999
-0.063516997 -0.159015 -0.050999999
-0.061213434 -0.15923876 -0.051687479
-0.058296122 -0.15898874 -0.053875029
0.016536599 -0.158994 -0.053300083
0.019525127 -0.15929937 -0.051499963
0.022208499 -0.15901498 -0.050999999
-0.063516997 -0.15634501 -0.050999999
-0.061175995 -0.155595 -0.051999927
-0.058502249 -0.15608001 -0.05400002
0.015998799 -0.15547533 -0.053533435
0.019476535 -0.15571266 -0.051999986
0.022356555 -0.15541111 -0.050999999
-0.061098203 -0.15204467 -0.052399993
0.016345166 -0.15196167 -0.053750038
0.019394001 -0.15222266 -0.052600026
0.022208501 -0.151905 -0.050999999
-0.061207939 -0.14848334 -0.052466691
0.016532999 -0.14869556 -0.05400002
0.019471627 -0.14868753 -0.052875042
0.0224145 -0.14824374 -0.051374972
-0.063516997 -0.14524333 -0.050999999
-0.061357904 -0.14520182 -0.052818239
0.01722 -0.14614999 -0.05400002
0.019585213 -0.14523785 -0.053214371
0.022546601 -0.14530599 -0.051400006
-0.063812993 -0.14183833 -0.050999999
-0.061598822 -0.14198361 -0.052818239
0.019651571 -0.14203498 -0.053142846
0.023091378 -0.14209938 -0.05112493
0.025318002 -0.14169 -0.050999999
-0.063960999 -0.1385825 -0.050999999
-0.06183178 -0.13807446 -0.052666664
0.019761 -0.13838771 -0.053307772
0.023086 -0.13851373 -0.051249981
0.025318002 -0.13814001 -0.050999999
-0.063813001 -0.13532335 -0.050999999
-0.061567828 -0.13494252 -0.052416682
0.019885918 -0.13463084 -0.053583384
0.023058252 -0.13479376 -0.051874995
0.025318 -0.1350275 -0.050999999
-0.063516997 -0.131475 -0.050999999
-0.061588079 -0.13144332 -0.052250028
0.019441715 -0.13122785 -0.053642929
0.023041001 -0.13114937 -0.052250028
0.025318 -0.131475 -0.050999999
-0.063516997 -0.12792249 -0.050999999
-0.061537337 -0.12779333 -0.052666664
0.019958539 -0.12773922 -0.053461611
0.023041001 -0.12760501 -0.052250028
0.025613999 -0.12762667 -0.050999999
-0.063812993 -0.12421999 -0.050999999
-0.061287429 -0.12434143 -0.052642882
0.020074334 -0.12422332 -0.053777814
0.023052253 -0.12412062 -0.051999986
0.025761999 -0.1243675 -0.050999999
-0.063516997 -0.121705 -0.050999999
-0.061537337 -0.12070917 -0.052666664
0.020310501 -0.12097833 -0.05400002
0.023052249 -0.120575 -0.051999986
0.025761999 -0.120815 -0.050999999
-0.063516997 -0.11682 -0.050999999
-0.061904877 -0.1170525 -0.052375019
0.020752 -0.11833 -0.05400002
0.023144614 -0.11728155 -0.052230775
0.025698571 -0.11745286 -0.050999999
-0.064071998 -0.113375 -0.050999999
-0.061475415 -0.11380749 -0.053166747
0.023054823 -0.11390882 -0.052529454
0.0254956 -0.11344199 -0.050999999
-0.064108998 -0.11030333 -0.050999999
-0.061496001 -0.11030667 -0.053000093
0.022977334 -0.11027668 -0.053000033
0.026120724 -0.11001363 -0.051090837
-0.063960999 -0.1066025 -0.050999999
-0.061543465 -0.1067023 -0.052615404
0.023341002 -0.107156 -0.053400099
0.026445569 -0.10666858 -0.051285625
-0.063960999 -0.1030475 -0.050999999
-0.06149609 -0.1030809 -0.052999973
0.023866501 -0.10342125 -0.053500056
0.026197666 -0.10301333 -0.051166654
-0.064024433 -0.099685714 -0.050999999
-0.061580334 -0.10001222 -0.053111136
0.023860497 -0.099860996 -0.053625047
0.026748002 -0.099572495 -0.051571429
0.028871 -0.098606005 -0.050999999
-0.063897558 -0.096166342 -0.051111102
-0.06156509 -0.096306808 -0.05309099
0.023989668 -0.096547507 -0.05400002
0.026579868 -0.096350066 -0.051800013
0.028871 -0.095053002 -0.050999999
-0.063960999 -0.092387497 -0.050999999
-0.061937999 -0.092905745 -0.053000033
0.024284 -0.093603499 -0.05400002
0.026631355 -0.092773013 -0.051882386
0.028871 -0.092535667 -0.050999999
-0.064202003 -0.0886214 -0.051199973
-0.061907001 -0.089322373 -0.053250015
0.026549134 -0.089147791 -0.052400053
0.028871 -0.088834248 -0.050999999
-0.064294003 -0.085836008 -0.050999999
-0.061576363 -0.085706733 -0.053000093
0.024284 -0.084331997 -0.05400002
0.026461001 -0.085750319 -0.052933395
0.028871 -0.085725002 -0.050999999
-0.063960999 -0.082615748 -0.050999999
-0.061818108 -0.082471676 -0.052777767
0.024284 -0.083448999 -0.05400002
0.026556125 -0.08231844 -0.052812517
0.028871 -0.082615748 -0.050999999
-0.06394513 -0.079043247 -0.05112499
-0.062168002 -0.079148501 -0.052333355
0.024284 -0.079474501 -0.05400002
0.02657325 -0.07882712 -0.05250001
0.029048597 -0.079151399 -0.050999999
-0.064312734 -0.075374648 -0.051090896
-0.061891504 -0.075153127 -0.053375006
0.026992418 -0.075222664 -0.052916765
0.029300751 -0.075472116 -0.051250041
-0.064483091 -0.07178776 -0.051461518
-0.062348749 -0.071635254 -0.053250015
0.0274025 -0.071598873 -0.053500056
0.029286502 -0.071884379 -0.051500022
-0.064753883 -0.068301313 -0.051750004
-0.062254999 -0.068437003 -0.05400002
0.02740925 -0.068079874 -0.053375065
0.029424889 -0.068164557 -0.051666677
-0.064738132 -0.064736187 -0.051874995
-0.062254999 -0.063138001 -0.05400002
0.027453572 -0.064689428 -0.053714335
0.029681915 -0.064678088 -0.052333355
0.031536002 -0.064404994 -0.050999999
-0.064608008 -0.061238065 -0.05219996
-0.062254999 -0.059606001 -0.05400002
0.02743757 -0.061119713 -0.05400002
0.029661665 -0.061093003 -0.052666664
0.0319805 -0.061295502 -0.050999999
-0.064658806 -0.0575618 -0.051800072
-0.062254999 -0.057840001 -0.05400002
0.027815999 -0.0582815 -0.05400002
0.029661916 -0.057551417 -0.052666664
0.0319805 -0.057742249 -0.050999999
-0.064616539 -0.0539786 -0.052133322
0.029974999 -0.05411391 -0.052818179
0.032044001 -0.054252144 -0.050999999
-0.064826116 -0.050649885 -0.052333355
0.030092126 -0.050447125 -0.052875042
0.031832334 -0.050931666 -0.050999999
-0.064673997 -0.047097426 -0.052857161
0.030386001 -0.047216401 -0.052399993
0.031536002 -0.047082253 -0.050999999
-0.064600438 -0.043639228 -0.052555501
0.030958667 -0.043341834 -0.053166687
0.032398798 -0.043228399 -0.051400006
-0.064162187 -0.040265907 -0.052909136
0.030709375 -0.040429749 -0.053625047
0.033247996 -0.040043555 -0.051999986
-0.064124405 -0.037147701 -0.053200066
0.030987574 -0.037299428 -0.053714335
0.033232693 -0.036775537 -0.052230835
-0.064527497 -0.033589751 -0.053500056
0.0311966 -0.033671997 -0.053600013
0.033285998 -0.033136662 -0.051416636
-0.064511374 -0.030045751 -0.053625047
0.030930128 -0.030045751 -0.053625047
0.0331982 -0.029913101 -0.051400006
-0.064543746 -0.026524374 -0.053375065
0.031171402 -0.0267564 -0.05400002
0.033248 -0.026597416 -0.051999986
0.035089999 -0.025761999 -0.050999999
-0.064020999 -0.022959501 -0.05400002
0.031348001 -0.024284 -0.05400002
0.033286363 -0.023142999 -0.052636325
0.035386 -0.022800669 -0.050999999
-0.064020999 -0.019427499 -0.05400002
0.033819124 -0.019452624 -0.053375065
0.035417203 -0.020149801 -0.051400006
-0.064020999 -0.016336666 -0.05400002
0.034255799 -0.016197599 -0.0528
0.035020001 -0.016402001 -0.051999986
-0.064020999 -0.011921 -0.05400002
0.033725571 -0.012211285 -0.052428603
0.035089999 -0.011992666 -0.050999999
-0.064020999 -0.010155 -0.05400002
0.033215664 -0.0088568078 -0.052500069
0.035386 -0.0085873334 -0.050999999
0.033558223 -0.0054690111 -0.05177778
0.035470571 -0.0053935 -0.050999999
0.033648998 -0.0017712874 -0.05262506
0.035525251 -0.0017761425 -0.05112499
-0.064020999 0.00088306499 -0.05400002
0.033632249 0.00177019 -0.052875042
0.035682 0.0018260487 -0.050999999
0.033606999 0.0053058127 -0.053250015
0.035875298 0.0055941003 -0.051199973
0.038642999 0.0057742 -0.050999999
0.034042999 0.0088422159 -0.053333402
0.036492266 0.0087899268 -0.051266611
0.034032002 0.012374999 -0.053500056
0.03615189 0.012083334 -0.051333368
-0.063138001 0.016336666 -0.05400002
0.033759668 0.016216166 -0.053166747
0.035374332 0.015689332 -0.051166654
-0.063138001 0.018544499 -0.05400002
0.033673748 0.019496376 -0.052250028
0.035386 0.019543501 -0.050999999
0.033226665 0.02303575 -0.052333355
0.035089999 0.023096751 -0.050999999
-0.06318 0.026951665 -0.053666711
0.03330509 0.026618002 -0.052363634
0.035089999 0.027983001 -0.050999999
-0.062254999 0.0300235 -0.05400002
0.033114091 0.029973364 -0.052818179
0.035089999 0.029759333 -0.050999999
-0.062103398 0.033835199 -0.053800046
0.033224817 0.033222273 -0.052363634
-0.061804004 0.036930569 -0.053571463
0.031379499 0.0371265 -0.053499997
0.032886285 0.036560573 -0.051714361
-0.061907005 0.040238 -0.053250015
0.030948499 0.040674165 -0.053333402
0.032844625 0.039945375 -0.051374972
-0.061459102 0.044037096 -0.053300083
0.030937999 0.04375425 -0.053500056
0.032828249 0.043474499 -0.051625013
-0.061144307 0.047040846 -0.052538514
0.030827623 0.047179874 -0.053500056
0.032860875 0.047070876 -0.05112499
-0.060651455 0.050414182 -0.051999986
0.0298825 0.050286997 -0.053214312
0.032297857 0.050699003 -0.050999999
-0.060554005 0.053815801 -0.052000046
0.029760998 0.054002274 -0.052363575
0.031536002 0.0533005 -0.050999999
-0.060342781 0.057489887 -0.052777827
-0.058722999 0.058722999 -0.05400002
0.027844001 0.058339998 -0.053499997
0.029682167 0.057590168 -0.052333355
-0.059962999 0.060851332 -0.050999999
-0.058478568 0.061260141 -0.052857161
0.027815999 0.060930498 -0.05400002
0.029676586 0.061123829 -0.052416742
0.031536002 0.060851 -0.050999999
-0.058303669 0.064501442 -0.052555561
0.027815999 0.064021327 -0.05400002
0.029701501 0.064720005 -0.051999986
0.031536002 0.064849496 -0.050999999
-0.058355112 0.068399221 -0.052111089
0.029681334 0.068221502 -0.052333295
0.031536002 0.06707 -0.050999999
-0.058091581 0.071837239 -0.051833272
0.027521664 0.071380332 -0.05400002
0.029666586 0.071729489 -0.052583396
-0.057541773 0.07516066 -0.052333355
0.027549667 0.075429343 -0.053500056
0.029398667 0.075195223 -0.052111089
-0.056671254 0.078808241 -0.05262506
0.027153799 0.0788946 -0.053200066
0.029226856 0.078805856 -0.051428616
-0.056587599 0.082349196 -0.050999999
-0.054988336 0.08255633 -0.053166687
0.026992666 0.082301997 -0.052916706
0.029251572 0.082806148 -0.050999999
-0.05641 0.085725002 -0.050999999
-0.054527666 0.085895218 -0.05288893
0.02691791 0.08573737 -0.052818239
0.029092999 0.085502997 -0.050999999
-0.054454003 0.089129746 -0.052666664
0.027052155 0.089181378 -0.053076982
0.028871 0.088834256 -0.050999999
-0.054342922 0.092732824 -0.052333355
0.026758166 0.092874669 -0.053166687
0.029048597 0.092653997 -0.050999999
-0.053904533 0.09597408 -0.052076876
0.026640212 0.096112229 -0.052428544
0.029048597 0.095852397 -0.050999999
-0.053611331 0.099774882 -0.051333308
-0.051324718 0.10006099 -0.053571463
0.026272748 0.099653497 -0.051874995
0.028871 0.098162003 -0.050999999
-0.054156065 0.10298374 -0.051312447
-0.051013995 0.103619 -0.053400099
0.025698749 0.10323374 -0.052250087
-0.05390146 0.10626616 -0.051461458
-0.051116109 0.1067989 -0.053555608
0.023949999 0.107554 -0.053600013
0.025803858 0.10670143 -0.051428556
-0.052751664 0.10978667 -0.051999986
-0.051332626 0.11062749 -0.052875042
0.0235705 0.11054625 -0.052750051
0.025698571 0.10996429 -0.050999999
-0.050141875 0.11411624 -0.05262506
0.020752 0.1148 -0.05400002
0.023044812 0.11388187 -0.052187443
0.025318 0.11370751 -0.050999999
-0.049993999 0.116596 -0.051199973
-0.047478713 0.11777715 -0.052857161
0.020464499 0.11777833 -0.053833365
0.022990003 0.11716083 -0.051750064
-0.047522459 0.12071729 -0.051909089
0.0205754 0.120712 -0.05400002
0.022593999 0.12049499 -0.052333355
-0.047075555 0.12380777 -0.052666664
-0.045476999 0.12363 -0.05400002
0.020793 0.12343 -0.053000033
0.022142 0.12267 -0.05250001
-0.060767002 -0.21044999 -0.047999978
-0.059425998 -0.21044999 -0.047999978
0.020106999 -0.21044999 -0.047999978
-0.06070314 -0.20840858 -0.047999978
-0.058805507 -0.20819332 -0.049499989
0.019691287 -0.2080557 -0.048857212
-0.060779572 -0.20465712 -0.048428535
-0.059060801 -0.205156 -0.049600005
0.0066757998 -0.20339 -0.050000012
0.019576155 -0.20449001 -0.049307644
0.021894 -0.2033 -0.047999978
-0.060617857 -0.20148429 -0.04871428
-0.058860712 -0.20152713 -0.049571395
0.02026525 -0.20131375 -0.049624979
0.0220642 -0.20089801 -0.048199952
-0.060697 -0.19774666 -0.048999965
-0.059192002 -0.19716001 -0.050000012
0.0062307501 -0.19805001 -0.050000012
0.0075659002 -0.19893999 -0.050000012
0.02047725 -0.19765376 -0.049874961
0.022312336 -0.19768001 -0.048666656
-0.0609634 -0.193867 -0.048600018
-0.059192002 -0.1936 -0.050000012
0.020107908 -0.19392362 -0.049999952
0.022556599 -0.19417199 -0.049199939
0.024575001 -0.19258 -0.047999978
-0.061265375 -0.19093627 -0.048500001
0.022705832 -0.19054832 -0.049833298
0.024902601 -0.190384 -0.048600018
-0.063000999 -0.18721668 -0.047999978
-0.061508875 -0.18720126 -0.049250007
0.023291335 -0.18722166 -0.049999952
0.02497825 -0.18733874 -0.048874974
-0.063000999 -0.18453334 -0.047999978
-0.061259903 -0.18351099 -0.049099982
0.020472001 -0.182475 -0.050000012
0.022908499 -0.18343899 -0.049300015
0.024575001 -0.18453334 -0.047999978
-0.063000999 -0.18051 -0.047999978
-0.061458375 -0.18058127 -0.048749983
0.020547571 -0.1800957 -0.049714267
0.022678547 -0.18040729 -0.048636377
-0.063299 -0.17708999 -0.047999978
-0.062317204 -0.17643198 -0.049200058
0.0201531 -0.177003 -0.049099982
0.022341002 -0.177385 -0.047999978
-0.063895002 -0.17292 -0.047999978
-0.062835336 -0.17335667 -0.049333334
0.020408001 -0.17404601 -0.049400032
0.022216398 -0.17336002 -0.048800051
-0.063895002 -0.16979 -0.047999978
-0.062777005 -0.169634 -0.049799979
0.022895778 -0.17006111 -0.049999952
0.0250914 -0.168854 -0.048399985
-0.064257495 -0.165995 -0.048666656
-0.062752001 -0.16689 -0.050000012
0.023736333 -0.16674167 -0.049999952
0.025960503 -0.16565083 -0.048583329
0.028148999 -0.166215 -0.047999978
-0.064757243 -0.1627225 -0.049124956
0.023021638 -0.1630064 -0.049999952
0.026128771 -0.16263925 -0.048538446
-0.066574998 -0.15773 -0.047999978
-0.06500686 -0.15936144 -0.04928571
0.024033001 -0.159325 -0.049999952
0.025732666 -0.159155 -0.048666656
-0.064916268 -0.15573728 -0.048909128
0.024096573 -0.15582858 -0.049999952
0.025455499 -0.156305 -0.04825002
-0.064499274 -0.15230547 -0.048999965
0.023766 -0.15229401 -0.050000012
0.0247615 -0.152585 -0.048749983
-0.064097144 -0.14862286 -0.049428582
0.0238105 -0.14864501 -0.050000012
0.024997002 -0.14908999 -0.048500001
-0.064659998 -0.145375 -0.049000025
0.024477998 -0.14553 -0.050000012
0.0261374 -0.14522499 -0.048899949
0.028148999 -0.14432 -0.047999978
-0.065400198 -0.14212999 -0.048799992
0.026560668 -0.14140779 -0.049888849
0.028391331 -0.14151001 -0.049000025
-0.066574998 -0.13806666 -0.047999978
-0.06545525 -0.138035 -0.04975003
0.026703 -0.13796501 -0.049999952
0.028540246 -0.13823874 -0.048999965
-0.066574998 -0.13494 -0.047999978
-0.06507843 -0.13428999 -0.049714267
0.026723251 -0.13450502 -0.049624979
0.02835875 -0.1355425 -0.04824996
-0.066574998 -0.13180999 -0.047999978
-0.065058753 -0.13100624 -0.049374998
0.026750248 -0.13107124 -0.049124956
-0.066574998 -0.12734334 -0.047999978
-0.065152429 -0.12769285 -0.049142897
0.027013201 -0.12775201 -0.049199998
0.028446997 -0.12749167 -0.047999978
-0.066574998 -0.12421501 -0.047999978
-0.065147839 -0.12421 -0.049833298
0.027166001 -0.12425333 -0.049666703
0.028561374 -0.1240625 -0.048624992
-0.066574998 -0.121535 -0.047999978
-0.064765088 -0.12049637 -0.04945451
0.027148001 -0.12105499 -0.050000012
0.028587716 -0.12052572 -0.04928571
-0.066574998 -0.117065 -0.047999978
-0.064879283 -0.11747 -0.04928571
0.026969999 -0.11722801 -0.050000012
0.028435623 -0.11730876 -0.048874974
-0.067469001 -0.11304333 -0.047999978
-0.065789498 -0.11432625 -0.04974997
0.026789716 -0.11422287 -0.049571395
0.0283725 -0.11349 -0.047999978
-0.067469001 -0.1099175 -0.047999978
-0.065968998 -0.11024572 -0.049714267
0.027148001 -0.11171 -0.050000012
0.028794888 -0.11007111 -0.048888862
-0.067424662 -0.10672 -0.048333347
-0.065933496 -0.10692 -0.049499989
0.029053334 -0.10656223 -0.04955554
-0.067210391 -0.103628 -0.048600018
-0.065823145 -0.10322 -0.04985714
0.028977333 -0.10342333 -0.04916662
-0.067021996 -0.1000865 -0.047999978
-0.065806337 -0.10012233 -0.049333334
0.029581001 -0.10018733 -0.048999965
-0.066753797 -0.096601598 -0.047999978
-0.065552004 -0.096322 -0.049000025
0.029878499 -0.096321627 -0.048999965
-0.067111395 -0.093026802 -0.047999978
-0.065806337 -0.092396341 -0.049333334
0.030175665 -0.09270522 -0.049000025
-0.067469001 -0.089363247 -0.047999978
-0.066059999 -0.089366674 -0.049666643
0.030301623 -0.089121126 -0.049374998
-0.067424662 -0.086177997 -0.048333347
-0.066059999 -0.085209168 -0.049666643
0.030293999 -0.085534632 -0.049499989
0.031723998 -0.084448002 -0.047999978
-0.067469001 -0.080874003 -0.047999978
-0.065933496 -0.081971005 -0.049499989
0.030316873 -0.082031503 -0.049125016
0.031723998 -0.082213998 -0.047999978
-0.067469001 -0.079532996 -0.047999978
-0.066006429 -0.078608431 -0.049428582
0.030389002 -0.078689605 -0.049400032
0.031990502 -0.078264497 -0.048500001
-0.066090494 -0.075658999 -0.050000012
0.030709 -0.075658999 -0.050000012
0.032071147 -0.074788995 -0.048571408
-0.066312999 -0.072543673 -0.050000012
0.030757001 -0.071766406 -0.049199998
0.032305889 -0.071608104 -0.048222184
0.030709 -0.068538003 -0.050000012
0.032655798 -0.068076506 -0.048799992
0.032736249 -0.065025754 -0.049624979
-0.066312999 -0.060082 -0.050000012
0.0334615 -0.061569251 -0.048749983
-0.066312999 -0.059192002 -0.050000012
0.033623803 -0.0577038 -0.049000025
-0.066312999 -0.055631999 -0.050000012
0.033875 -0.054377373 -0.049249947
0.033590801 -0.050608002 -0.049499989
0.035298001 -0.050936751 -0.047999978
0.033435166 -0.047253076 -0.04916662
0.035298001 -0.047362499 -0.047999978
0.033788748 -0.044046752 -0.048875034
0.034269001 -0.041390002 -0.050000012
0.035298001 -0.039766666 -0.047999978
0.035263501 -0.036603749 -0.048500001
0.035246253 -0.033015501 -0.048750043
0.035581425 -0.029215856 -0.049428582
0.036376569 -0.026054429 -0.049000025
0.036394667 -0.023915665 -0.049333334
0.036638997 -0.0201065 -0.047999978
0.035526667 -0.015310667 -0.049000025
0.036517888 -0.012337555 -0.049000025
0.037139501 -0.0090845292 -0.049699962
0.037269 -0.005295889 -0.04955554
0.037421498 -0.001781985 -0.049499989
0.038872998 -0.00044681999 -0.047999978
0.037469 0.0017176542 -0.049714267
0.038872998 0.0019362067 -0.047999978
0.037384 0.0048955996 -0.049999952
0.038847331 0.0052101999 -0.048333347
0.038944602 0.0091792 -0.049400032
0.037503 0.0130952 -0.049600005
0.038872998 0.01251075 -0.047999978
0.037013501 0.016052874 -0.049000025
0.037087779 0.019657113 -0.049333334
0.038872998 0.020106999 -0.047999978
0.036878545 0.023033909 -0.049727201
0.039096497 0.023010999 -0.047999978
0.036573749 0.026091501 -0.048916638
0.038872998 0.024575001 -0.047999978
0.036603499 0.029460747 -0.048500001
0.035657499 0.032984 -0.049250007
0.034320001 0.036549248 -0.049250066
0.035463002 0.036356799 -0.048199952
0.034303002 0.0400935 -0.049500048
0.035651572 0.040370572 -0.048428595
0.034269001 0.043615002 -0.050000012
0.035692748 0.043723002 -0.048749983
-0.062752001 0.048510998 -0.050000012
0.034269001 0.04717575 -0.050000012
0.035769429 0.046862282 -0.048571408
-0.062624 0.0510436 -0.049600005
0.033936143 0.050998282 -0.04928571
0.035298001 0.049596 -0.047999978
-0.063000999 0.054065 -0.047999978
-0.0620896 0.054071598 -0.049600005
0.032809 0.054292805 -0.049199998
-0.061903 0.058044333 -0.049666643
0.032092251 0.057942756 -0.049249947
-0.061365716 0.061364423 -0.048857152
0.032144144 0.061550286 -0.049428582
-0.060907431 0.064095147 -0.048428595
0.032213669 0.065020666 -0.049666643
-0.060320001 0.067915753 -0.047999978
0.0321844 0.068379201 -0.049199998
-0.060707498 0.071420006 -0.048500001
0.031723998 0.070597 -0.047999978
-0.060630001 0.074380994 -0.048399985
-0.058934331 0.076154329 -0.049666703
0.03083 0.075958505 -0.047999978
-0.058774598 0.078394398 -0.049000025
0.030799501 0.078561001 -0.048500001
-0.058107205 0.0822054 -0.048600018
0.030442335 0.081673838 -0.049499989
0.031676751 0.082092002 -0.048749983
-0.057497002 0.085577749 -0.049249947
0.030442335 0.085831672 -0.049499989
0.031661 0.085619256 -0.049000025
-0.05655 0.089055248 -0.04975003
0.030301625 0.089121126 -0.049374938
0.031682 0.088799991 -0.048666656
-0.056671333 0.092668332 -0.048666656
0.030223399 0.092093199 -0.049199998
-0.056745999 0.096512258 -0.047999978
-0.055686999 0.097117998 -0.049500048
0.030199001 0.096653394 -0.049600005
-0.056941248 0.099591501 -0.04824996
-0.055353332 0.099428676 -0.049833298
0.027148001 0.10103 -0.050000012
0.029224921 0.099735305 -0.049615324
0.027175002 0.10335501 -0.049500048
0.028627573 0.10309857 -0.048571408
-0.054740999 0.10815 -0.050000012
0.0272425 0.1071825 -0.04825002
0.028135249 0.1071825 -0.04824996
-0.053937197 0.110104 -0.049200058
0.0269916 0.110728 -0.049600005
0.028391331 0.11089 -0.049000025
-0.052071001 0.11527 -0.050000012
0.026703 0.113935 -0.049999952
0.028540164 0.11371335 -0.049000025
-0.053171001 0.11573 -0.047999978
-0.051162004 0.11802112 -0.049222231
0.024478 0.118385 -0.050000012
0.026166501 0.117025 -0.049624979
0.028093999 0.115945 -0.049000025
-0.053171001 0.119745 -0.047999978
-0.050664999 0.12061462 -0.049692273
0.024477998 0.12061 -0.050000012
0.025749331 0.12026334 -0.048333347
-0.050392002 0.12292667 -0.049000025
0.024526 0.12263 -0.049000025
-0.064315669 -0.21108334 -0.044666708
-0.062352002 -0.21128 -0.046000004
0.022609001 -0.21077715 -0.046285748
0.026280101 -0.21122599 -0.044400036
0.028371001 -0.21166 -0.04400003
-0.064284079 -0.20828415 -0.044916749
-0.062050797 -0.20835599 -0.046999991
0.022414213 -0.20844212 -0.046357214
0.026056668 -0.20835666 -0.044666648
0.028371001 -0.20851 -0.04400003
-0.064441152 -0.2045946 -0.044769228
-0.062229998 -0.20504501 -0.046999991
0.02277375 -0.20510496 -0.046666741
0.025855569 -0.20452285 -0.045428574
0.028371001 -0.2031 -0.04400003
-0.064604357 -0.20119286 -0.044928551
-0.062229998 -0.20146501 -0.046999991
0.023296168 -0.20144665 -0.046666682
0.025976866 -0.20124064 -0.045066655
0.028371001 -0.2022 -0.04400003
-0.067101002 -0.19769998 -0.04400003
-0.064822271 -0.19787735 -0.044933319
-0.062229998 -0.19788 -0.046999991
0.023763251 -0.19817249 -0.046249986
0.0260134 -0.19805066 -0.044333339
-0.067101002 -0.19455001 -0.04400003
-0.064728804 -0.19442067 -0.04519999
-0.062229998 -0.19519499 -0.046999991
0.023728 -0.19564 -0.046999991
0.026316229 -0.19443844 -0.044923067
0.0287314 -0.19392 -0.04400003
-0.067101002 -0.1909425 -0.04400003
-0.064618401 -0.19091466 -0.045599997
0.026863126 -0.191065 -0.044875026
0.029271754 -0.19049124 -0.04400003
-0.067101002 -0.18734001 -0.04400003
-0.065055497 -0.18723585 -0.045916677
0.026799303 -0.18722601 -0.044799984
0.028821502 -0.18734001 -0.04400003
-0.067281 -0.18347001 -0.04400003
-0.064799748 -0.18370749 -0.046166718
0.026241288 -0.18348144 -0.045428574
0.028821502 -0.18374 -0.04400003
-0.067551002 -0.18013999 -0.04400003
-0.064770781 -0.18040499 -0.046142936
0.023728 -0.17907999 -0.046999991
0.025897499 -0.18018498 -0.045857131
0.029165778 -0.18005 -0.044111133
-0.067596428 -0.17667429 -0.044142902
-0.065149732 -0.17684546 -0.04581815
0.02303689 -0.17648111 -0.046888947
0.026056498 -0.17700252 -0.045249939
0.029403666 -0.17701668 -0.044333339
-0.067518003 -0.17329501 -0.044250071
-0.065258332 -0.17343777 -0.045888901
0.023775 -0.17405 -0.046000004
0.026238063 -0.17343375 -0.044999957
0.028688252 -0.17325249 -0.044375002
-0.067742556 -0.16973223 -0.044444442
-0.065428503 -0.16984375 -0.046499968
0.026195286 -0.17029999 -0.046285748
0.028540999 -0.16960001 -0.046333313
-0.067946337 -0.16649251 -0.044416666
-0.065652251 -0.1667075 -0.046500027
0.0268615 -0.16789 -0.046999991
0.029216668 -0.16599832 -0.045000017
-0.067939095 -0.16279547 -0.045090914
-0.065811001 -0.16429999 -0.046999991
0.02897091 -0.16306908 -0.045000017
-0.068030186 -0.15935819 -0.045636415
0.02701067 -0.15967834 -0.047000051
0.029019129 -0.159265 -0.044500053
-0.068261437 -0.15582812 -0.045437515
0.026718114 -0.15568444 -0.046888947
0.029211087 -0.15578584 -0.045083284
-0.068278193 -0.15227313 -0.045312464
-0.065811001 -0.15132 -0.046999991
0.026500093 -0.15212001 -0.046909153
0.029669315 -0.15216061 -0.044937491
-0.068303257 -0.14873187 -0.045125008
-0.065811001 -0.148635 -0.046999991
0.026925428 -0.14882715 -0.047000051
0.029707333 -0.14870733 -0.044800043
-0.068136223 -0.14538787 -0.044928551
-0.065811001 -0.14550334 -0.046999991
0.027309 -0.1464 -0.046999991
0.029670751 -0.14542165 -0.044916689
-0.067858748 -0.14170749 -0.045083344
0.030276859 -0.14186856 -0.044428647
-0.068624698 -0.138055 -0.045399964
0.030497601 -0.13790999 -0.04460007
-0.068739541 -0.13474363 -0.04581821
0.029954614 -0.13470154 -0.045384645
0.032154202 -0.13483001 -0.04400003
-0.067978106 -0.13111201 -0.046200037
0.029630134 -0.13127933 -0.046133339
0.032360144 -0.13169286 -0.04400003
-0.068055503 -0.12781125 -0.046125054
0.030253202 -0.12783 -0.045700073
0.032360144 -0.12770715 -0.04400003
-0.068184502 -0.124255 -0.046000004
0.030534169 -0.12437833 -0.04549998
0.032560669 -0.12408667 -0.044222236
-0.067915604 -0.12057699 -0.046000004
0.030474003 -0.12099624 -0.046500027
0.032663602 -0.120662 -0.044500053
-0.06787625 -0.1173825 -0.046625018
0.030321337 -0.11724889 -0.046555519
0.032764819 -0.11686273 -0.044454575
-0.068345599 -0.11403 -0.046800017
0.030099275 -0.11391819 -0.046636343
0.033074081 -0.11354333 -0.044416666
-0.068598494 -0.1102975 -0.046250045
0.030602833 -0.11047 -0.046833277
0.032979842 -0.11014616 -0.044538438
-0.068498001 -0.10699666 -0.046999991
0.030890999 -0.10655 -0.046999991
0.03291136 -0.10666 -0.044727325
0.030890999 -0.10297 -0.046999991
0.033193335 -0.10341467 -0.044666648
-0.067602001 -0.098940998 -0.046999991
0.030890999 -0.099388249 -0.046999991
0.0331848 -0.09991014 -0.044800043
-0.067602001 -0.095807001 -0.046999991
0.030890999 -0.097149998 -0.046999991
0.033369064 -0.096324399 -0.044733346
0.035576999 -0.097723998 -0.04400003
-0.067602001 -0.094463997 -0.046999991
0.033262249 -0.092812374 -0.045000017
0.033274598 -0.089275055 -0.045266688
-0.067602001 -0.084615 -0.046999991
0.033321068 -0.085827075 -0.045466721
0.035576999 -0.085564755 -0.04400003
-0.067602001 -0.082823671 -0.046999991
0.03366264 -0.082133271 -0.045727193
0.035953142 -0.082131997 -0.044142962
0.033751335 -0.079016328 -0.045888841
0.035576999 -0.078809671 -0.04400003
0.033898108 -0.075412005 -0.046666682
0.035873141 -0.075275145 -0.045285702
0.034088999 -0.071439572 -0.047000051
0.036280368 -0.071700722 -0.045636296
0.034472998 -0.068049997 -0.046999991
0.036383662 -0.06827309 -0.045333385
0.034472998 -0.06446825 -0.046999991
0.036448251 -0.06479542 -0.044416666
0.034523249 -0.06097725 -0.046249986
0.036809869 -0.061168667 -0.044399977
0.039179999 -0.060796 -0.04400003
0.034472998 -0.058200501 -0.046999991
0.036932867 -0.057597931 -0.04520005
0.039179999 -0.058544502 -0.04400003
0.0368542 -0.054214336 -0.045466721
0.039179999 -0.054490998 -0.04400003
0.0371508 -0.050878603 -0.045900047
0.039179999 -0.050438002 -0.04400003
0.037220497 -0.047534 -0.046166718
0.039154332 -0.047255334 -0.044333339
0.036771253 -0.043943875 -0.04618758
0.039344601 -0.044385601 -0.044200003
0.037112385 -0.04049354 -0.045769274
0.039179999 -0.040530749 -0.04400003
0.03730008 -0.036849838 -0.045083344
0.039179999 -0.036927998 -0.04400003
0.03724508 -0.033205833 -0.045833349
0.039179999 -0.033325251 -0.04400003
0.037540331 -0.029762335 -0.045888901
0.039179999 -0.029722249 -0.04400003
0.038039997 -0.026346799 -0.044800043
0.039179999 -0.02611975 -0.04400003
0.037905332 -0.022472335 -0.045000076
0.039179999 -0.022516999 -0.04400003
0.037614003 -0.018831221 -0.044888914
0.039179999 -0.018914251 -0.04400003
0.03724122 -0.015903223 -0.045888901
0.039179999 -0.015761999 -0.04400003
0.0378865 -0.01322725 -0.046250045
0.0394415 -0.012298 -0.044499993
0.039533749 -0.0089854123 -0.045249999
0.039485626 -0.0053837127 -0.045874953
0.039584573 -0.00198782 -0.045428574
0.0398384 0.0017084681 -0.044800043
0.039982252 0.0053906501 -0.045249999
0.039897334 0.0085161999 -0.046333313
0.039884001 0.01254875 -0.046500027
0.038054001 0.017012499 -0.046999991
0.039007001 0.0161415 -0.046249986
0.038054001 0.019251 -0.046999991
0.03895 0.0188035 -0.046999991
0.03895 0.021042001 -0.046999991
0.038054001 0.027309 -0.046999991
0.039000668 0.026449336 -0.046333313
0.038072754 0.02956325 -0.046750009
0.039026 0.029157666 -0.046000004
0.037643999 0.033162002 -0.046499968
0.037294272 0.03688636 -0.046272755
0.037556555 0.04024978 -0.045666635
0.037659857 0.043816712 -0.045428574
0.036800601 0.048082806 -0.046999991
0.036321297 0.051117301 -0.046200037
0.034174334 0.055066664 -0.046999991
0.0365039 0.054216098 -0.0449
0.034146715 0.057593998 -0.046142876
0.036383092 0.057500456 -0.044181764
0.034117751 0.061051875 -0.045624971
0.036177557 0.061396334 -0.04400003
-0.062006 0.065139748 -0.046999991
0.034050249 0.064515375 -0.046625078
0.036180142 0.064197995 -0.044571459
-0.061812498 0.068083882 -0.046750009
0.034159001 0.068318754 -0.045000017
-0.062290996 0.071701251 -0.046500027
0.033472929 0.072082147 -0.044714272
-0.061787862 0.075746715 -0.046428561
0.033063669 0.075195499 -0.044583321
-0.061132755 0.078939743 -0.045583367
0.032509997 0.078846291 -0.04550004
-0.060988091 0.082011364 -0.044454515
-0.058648001 0.083719 -0.046999991
0.033078667 0.082618997 -0.04550004
-0.060568601 0.084508002 -0.044400036
-0.058956336 0.085959673 -0.044333398
0.033228628 0.085760742 -0.04549998
-0.060195338 0.089467496 -0.04400003
-0.05844586 0.089109719 -0.045428574
0.032950833 0.089261673 -0.045166731
-0.060796004 0.092770003 -0.04399997
-0.058171201 0.092819497 -0.045700073
0.030890999 0.0940165 -0.046999991
0.032393333 0.092679329 -0.044499993
-0.060156334 0.09526033 -0.044333339
-0.058315668 0.095995836 -0.045999944
0.0310125 0.096184999 -0.045000017
0.031973999 0.096822999 -0.04400003
-0.058089335 0.099005334 -0.046666682
0.031013001 0.10113 -0.045000017
0.032199252 0.10042875 -0.04400003
0.030457428 0.10368001 -0.045714319
0.032462142 0.10394286 -0.044428647
0.029985093 0.10667636 -0.045818269
0.032322001 0.10686801 -0.044200003
-0.056814998 0.11071124 -0.04537499
-0.055401329 0.11035667 -0.046666682
0.030187499 0.109872 -0.045300007
0.032351289 0.10965715 -0.044142902
-0.0566875 0.112925 -0.044500053
-0.053899199 0.11362199 -0.046199977
-0.052379999 0.11461 -0.046999991
0.030341199 0.11335202 -0.044200003
0.031973999 0.112585 -0.04400003
-0.053275999 0.11774334 -0.046999991
0.027309 0.11864 -0.046999991
0.029283775 0.11747888 -0.045555592
-0.053275999 0.12133 -0.046999991
-0.052379999 0.12222 -0.046999991
0.026994202 0.12115799 -0.046200037
0.029145127 0.12119375 -0.044250071
-0.054650404 0.12406199 -0.044200003
0.026467333 0.12306 -0.046000004
0.029722501 0.12294 -0.04400003
-0.067495003 -0.21199751 -0.041000009
-0.066104248 -0.21184999 -0.042999983
0.029952275 -0.21163273 -0.04218179
0.032614999 -0.21336 -0.041000009
-0.067495003 -0.2083725 -0.041000009
-0.066330001 -0.20846501 -0.042999983
0.029245874 -0.20821498 -0.042500019
-0.067407005 -0.20493667 -0.041666687
-0.066330001 -0.20530666 -0.042999983
0.027525 -0.20576 -0.042999983
0.029267779 -0.20527223 -0.042333305
-0.067687161 -0.20155168 -0.041833341
0.0294553 -0.200757 -0.042399943
-0.068201005 -0.1978275 -0.042499959
0.027525 -0.19809 -0.042999983
0.029685855 -0.19766143 -0.042428553
0.032161999 -0.19705001 -0.041000009
-0.068636723 -0.19376715 -0.042142868
