# .PCD v0.7 - Point Cloud Data file format
VERSION 0.7
FIELDS x y z
SIZE 4 4 4
TYPE F F F
COUNT 1 1 1
WIDTH 1307
HEIGHT 1
VIEWPOINT 0 0 0 1 0 0 0
POINTS 1307
DATA ascii
0.040489241 0.099929117 -0.066250056
0.043781925 0.099739805 -0.065066785
-0.0043183593 0.10363999 -0.064999998
-0.0017269588 0.10357499 -0.065312564
0.0017220036 0.10336437 -0.066312551
0.0048778635 0.10345273 -0.067909122
0.0075823241 0.10400334 -0.068000019
0.027896991 0.10300501 -0.068000019
0.030043241 0.10300499 -0.068000019
0.03347674 0.10300498 -0.068000019
0.03694899 0.1031125 -0.067500025
0.040489241 0.1033775 -0.066250056
0.043593243 0.10358834 -0.065250009
-0.0040592491 0.107008 -0.064999998
-0.0017262469 0.10698687 -0.065500021
0.0017217282 0.10679623 -0.066375047
0.0051529594 0.10650875 -0.067687541
0.0079829106 0.106526 -0.068000019
0.030043278 0.10650142 -0.068000019
0.03347674 0.10644 -0.068000019
0.036963053 0.10659125 -0.067312539
0.040504429 0.10686439 -0.06606257
0.043182988 0.107095 -0.064999998
-0.001541524 0.11032714 -0.065428644
0.0017216727 0.11022561 -0.066437542
0.0051546656 0.10998499 -0.067500025
0.0082866522 0.10977077 -0.068000019
0.01673799 0.11073 -0.068000019
0.019313991 0.11116 -0.068000019
0.027896991 0.11116 -0.068000019
0.030794239 0.11019249 -0.068000019
0.033481114 0.10988437 -0.067937523
0.036995865 0.11012813 -0.06687507
0.040509492 0.11032251 -0.066000074
0.043326989 0.11069111 -0.065000027
-0.00129552 0.11400499 -0.065000087
0.001722665 0.11372688 -0.066187561
0.0051578721 0.1134825 -0.067250043
0.0085000629 0.11342534 -0.067866683
0.01194574 0.11437918 -0.068000019
0.015665324 0.11445 -0.068000019
0.018700561 0.11508143 -0.068000019
0.02102999 0.11545 -0.068000019
0.027896991 0.1133075 -0.068000019
0.030138602 0.11354557 -0.068000078
0.033468992 0.11369421 -0.067789584
0.037005741 0.1135975 -0.066750079
0.040530991 0.11382876 -0.065750033
0.043326989 0.11386111 -0.065000027
-0.0015419645 0.1175293 -0.065214336
0.0017234398 0.11720502 -0.06606257
0.0051608398 0.11697999 -0.067000061
0.0086013898 0.11697999 -0.067000061
0.012000682 0.11720384 -0.067307711
0.01545074 0.11759999 -0.068000019
0.018884489 0.11759999 -0.068000019
0.022403723 0.11757135 -0.068000019
0.026523789 0.117686 -0.068000019
0.030227134 0.11747716 -0.068000019
0.033455633 0.11730714 -0.067428589
0.037015364 0.11707 -0.066625059
0.040546555 0.11732438 -0.065562546
0.042750988 0.11745751 -0.064999998
-0.0017266355 0.12080625 -0.065437555
0.0017234398 0.1206525 -0.06606257
0.0051608398 0.12042001 -0.067000061
0.0086013898 0.12042001 -0.067000061
0.01204199 0.12041999 -0.067000061
0.015471905 0.12076667 -0.06733337
0.018804124 0.12097733 -0.067866683
0.022704093 0.12111104 -0.067947388
0.026510682 0.12112921 -0.068000019
0.030142298 0.12093076 -0.068000019
0.03362805 0.12048934 -0.067066729
0.037061989 0.1206675 -0.066000074
0.040572241 0.12085313 -0.065250099
0.042750988 0.12091501 -0.064999998
-0.0012162908 0.12413454 -0.065454632
0.001723827 0.124115 -0.066000074
0.0051634894 0.123925 -0.06675005
0.0086013898 0.12386 -0.067000061
0.012040301 0.12384436 -0.067062557
0.015480677 0.12384436 -0.067062557
0.019010529 0.12408078 -0.067307711
0.022643777 0.12408572 -0.067571491
0.026468132 0.124175 -0.06721434
0.030086115 0.12421062 -0.067312539
0.033446658 0.12408389 -0.067055613
0.037061989 0.12411499 -0.066000074
0.040274683 0.12420923 -0.065230846
0.042750988 0.12350501 -0.064999998
-0.00086367613 0.1278225 -0.064999998
0.0017253025 0.12770875 -0.065437526
0.0051721516 0.12757689 -0.065937549
0.0086080078 0.12739749 -0.066625059
0.012138766 0.12755334 -0.06694445
0.015482488 0.12773003 -0.067000031
0.01892299 0.12773 -0.067000031
0.022631381 0.12777433 -0.067260951
0.026438946 0.12747091 -0.067545503
0.030053599 0.12770444 -0.067833394
0.033633657 0.12789223 -0.067111135
0.037076488 0.12761 -0.065812528
0.040160324 0.1278225 -0.065000087
-0.00086367637 0.12998 -0.064999998
0.0017561098 0.13124865 -0.065000117
0.005181164 0.13126062 -0.065062582
0.0086190393 0.13100998 -0.066000074
0.012027636 0.13139823 -0.066529423
0.015482488 0.13160001 -0.067000061
0.018917866 0.13156626 -0.067125052
0.022753539 0.1313705 -0.067850113
0.026609739 0.13133001 -0.068000019
0.03004724 0.13134687 -0.067937523
0.033450589 0.13147801 -0.067133397
0.037086237 0.13109374 -0.065687597
0.040160324 0.13127749 -0.065000087
0.0030227883 0.13344 -0.064999998
0.0052665947 0.13460933 -0.065133423
0.0086190384 0.13445751 -0.066000074
0.011925417 0.13468929 -0.066714317
0.015605418 0.13485572 -0.067000061
0.018915303 0.13498875 -0.067187548
0.022749137 0.13477901 -0.06795004
0.026609739 0.134765 -0.068000019
0.030067116 0.13486874 -0.067625046
0.033549525 0.13485464 -0.066533387
0.037061989 0.1344575 -0.066000074
0.040395707 0.13481642 -0.06514287
0.0059360382 0.13782626 -0.065124989
0.0086190375 0.137905 -0.066000074
0.012090655 0.13793467 -0.066200048
0.015465654 0.13804933 -0.066600055
0.018922988 0.13848001 -0.067000061
0.022663722 0.13817629 -0.067842185
0.026509283 0.13840763 -0.06752944
0.030097611 0.13844502 -0.067125052
0.033580489 0.1381925 -0.066500068
0.037066862 0.13792251 -0.065937579
0.040587243 0.1381675 -0.065062582
0.042750988 0.13861667 -0.064999998
0.0030227874 0.14294 -0.064999998
0.0056138178 0.14207402 -0.065000057
0.008621851 0.14140688 -0.065812558
0.012141401 0.14146174 -0.066058874
0.015346299 0.14151312 -0.066187561
0.018922988 0.14191999 -0.067000061
0.022473458 0.14179236 -0.06735301
0.026324727 0.14194262 -0.067000031
0.030104987 0.14191999 -0.067000061
0.033606924 0.14151135 -0.066533357
0.037109863 0.14153375 -0.06537509
0.04029322 0.14154306 -0.065000087
0.042750988 0.14035 -0.064999998
0.0030227874 0.14466 -0.064999998
0.0053670583 0.14509501 -0.065000087
0.0087164715 0.14507169 -0.065888941
0.011998935 0.14532055 -0.066000044
0.015582039 0.14532055 -0.066000044
0.018951863 0.14558502 -0.066250056
0.022360675 0.14534126 -0.067062557
0.026231289 0.14534552 -0.06705007
0.030112926 0.14539748 -0.06687507
0.033675089 0.14528897 -0.066105306
0.03707749 0.14528902 -0.065799952
0.04008181 0.14521272 -0.065000057
0.0056923325 0.14843453 -0.065000057
0.00850893 0.14867215 -0.065214336
0.012171756 0.1488823 -0.065769255
0.015511987 0.14909062 -0.06606257
0.018927736 0.14883874 -0.06687507
0.022363735 0.14880002 -0.067000061
0.026234189 0.14880002 -0.067000031
0.030132795 0.14893563 -0.066562533
0.033515844 0.14903501 -0.065642864
0.037152905 0.14882834 -0.065750033
0.040160324 0.14855251 -0.065000087
0.0089965211 0.15193249 -0.065000087
0.012004852 0.15209134 -0.065000117
0.01554272 0.15247132 -0.066000074
0.018942488 0.15240003 -0.066500068
0.022391798 0.15244061 -0.066375047
0.026054546 0.15221776 -0.066777825
0.029913982 0.15258335 -0.06622225
0.033737037 0.15243833 -0.065611184
0.03710385 0.15207067 -0.065066725
0.040073983 0.15191801 -0.065000057
0.0088957567 0.15494001 -0.065000057
0.012091236 0.15546 -0.065000117
0.015497602 0.15561232 -0.065461606
0.018968156 0.15562667 -0.06583336
0.022492455 0.15589802 -0.066066742
0.025843609 0.15592751 -0.066250056
0.029735783 0.15600501 -0.066000015
0.033520695 0.15595715 -0.065571457
0.03695241 0.15533642 -0.065000087
0.039296985 0.15459499 -0.064999998
0.012350287 0.15839702 -0.065000057
0.015574517 0.15882866 -0.065000117
0.019086855 0.158886 -0.065000117
0.022330293 0.15903845 -0.065538526
0.026086986 0.15949444 -0.066166699
0.029923759 0.15933831 -0.066055596
0.03372154 0.15926665 -0.06583339
0.036705654 0.15891503 -0.065000087
0.013386986 0.16107 -0.064999998
0.015669126 0.16218285 -0.065000087
0.019000484 0.16236751 -0.065000117
0.022455236 0.16236752 -0.065000117
0.026193509 0.16295055 -0.066052705
0.030000161 0.16261062 -0.066647112
0.033532716 0.16283602 -0.065933406
0.03662717 0.16225001 -0.065000057
0.016840985 0.16452999 -0.064999998
0.019925842 0.16576286 -0.064999998
0.022447988 0.16620499 -0.065150052
0.026090093 0.16631001 -0.066111147
0.029927317 0.16634721 -0.066000044
0.033569716 0.16629267 -0.065400094
0.035841987 0.16539334 -0.064999998
0.019756109 0.17046626 -0.064999998
0.022423048 0.16990376 -0.065687567
0.025856987 0.16979499 -0.066000074
0.029735779 0.16979498 -0.066000015
0.033666234 0.17005561 -0.065250099
0.035841987 0.17057334 -0.064999998
0.01942257 0.17350835 -0.065250009
0.022415236 0.17328627 -0.065875053
0.025856983 0.17324251 -0.066000074
0.02973273 0.17322502 -0.066049993
0.033583052 0.17344001 -0.065200061
0.035841987 0.17273501 -0.064999998
0.019863985 0.17576 -0.064999998
0.022659738 0.17620751 -0.065249979
0.025974452 0.17682199 -0.065400094
0.029323732 0.17680499 -0.065687567
0.032279488 0.17651375 -0.064999998
0.026341652 0.17921001 -0.064999998
0.028068986 0.17921001 -0.064999998
-0.0038865162 0.18654999 -0.064999998
-0.0021591664 0.18784499 -0.064999998
0.0082048168 0.18871002 -0.064999998
0.0064774831 0.190005 -0.064999998
0.0085615991 0.19066 -0.065166742
0.0093563842 0.19331665 -0.064999998
-0.0052971095 -0.123378 -0.062399983
-0.0019917092 -0.123718 -0.063799977
0.00043272084 -0.12419 -0.06400001
0.027261011 -0.12504999 -0.06400001
0.02962791 -0.12448801 -0.063499957
0.032987449 -0.124135 -0.06249997
0.035193011 -0.12296 -0.062000006
-0.01086199 -0.11948 -0.062000006
-0.0086895395 -0.11991501 -0.062000006
-0.0052052722 -0.12092167 -0.062916666
-0.0021635392 -0.12246 -0.06400001
0.030434346 -0.12217 -0.063999981
0.033159763 -0.12086 -0.063166648
0.035482679 -0.120495 -0.062000006
-0.01107924 -0.1166575 -0.062000006
-0.0086866142 -0.11726313 -0.062187493
-0.0060676774 -0.11701125 -0.063249975
0.033489011 -0.11738727 -0.063818157
0.03625147 -0.1170377 -0.062153846
-0.011727323 -0.11379665 -0.062166661
-0.0086659463 -0.113515 -0.063374937
-0.0061198035 -0.11343143 -0.06400004
0.033838011 -0.113976 -0.06400001
0.036437698 -0.11364625 -0.062812448
0.03866801 -0.112965 -0.062000006
-0.01433799 -0.109485 -0.062000006
-0.012155491 -0.11025812 -0.062437475
-0.0086639654 -0.11002124 -0.063499957
-0.0062743402 -0.11056 -0.06400001
0.036688548 -0.11012999 -0.063461512
0.039247345 -0.11021001 -0.062000036
-0.014627658 -0.10789334 -0.062000006
-0.01215399 -0.10677376 -0.06249997
-0.0093842791 -0.10669111 -0.063555539
0.037162583 -0.10691429 -0.063857198
0.03975172 -0.10666572 -0.062428564
-0.014627658 -0.10239 -0.062000006
-0.012152616 -0.10328812 -0.062562466
-0.0095196897 -0.10298499 -0.06400004
0.037646007 -0.10385 -0.06400001
0.039984271 -0.10329667 -0.062933296
0.042317808 -0.103144 -0.062000036
-0.014881117 -0.099602245 -0.062000006
-0.012141991 -0.099726506 -0.062999964
-0.0096639255 -0.099812001 -0.06400004
0.04028409 -0.099625744 -0.063499957
0.042839207 -0.099754296 -0.062000036
-0.015127992 -0.096493274 -0.062000006
-0.012643391 -0.096381404 -0.063699991
0.04025634 -0.096095659 -0.063833296
0.042984676 -0.096388668 -0.062333316
-0.015438422 -0.092746921 -0.062571436
-0.013043278 -0.092662863 -0.06400004
0.040675011 -0.092601001 -0.06400004
0.043420821 -0.092919618 -0.062312484
0.045620009 -0.091674991 -0.062000006
-0.015619243 -0.08936619 -0.062749982
-0.013043278 -0.08932443 -0.06400004
0.041281007 -0.088879399 -0.06400001
0.043482207 -0.089480512 -0.062599957
0.045909673 -0.089212827 -0.062000006
-0.015528794 -0.085788265 -0.062866658
-0.013125659 -0.086687334 -0.063999981
0.041973006 -0.085677505 -0.06400001
0.043764006 -0.085793823 -0.063333303
0.046594389 -0.085872531 -0.062307686
-0.015620555 -0.082435548 -0.062687457
-0.012635192 -0.081956103 -0.06400001
0.041973006 -0.082648337 -0.063999981
0.043734338 -0.082271568 -0.063666642
0.046894636 -0.082498178 -0.062312484
-0.015624431 -0.078984313 -0.062562466
-0.012981493 -0.078754008 -0.06400004
0.044472881 -0.078882501 -0.06387502
0.046634804 -0.079200596 -0.062299997
-0.015611117 -0.075445689 -0.062999964
-0.012981493 -0.076590002 -0.06400001
0.045146674 -0.075580664 -0.06400004
0.047047451 -0.075420655 -0.062222242
-0.017813994 -0.072123498 -0.062000006
-0.015689125 -0.072024673 -0.063266605
0.045435008 -0.070964992 -0.06400001
0.04727101 -0.07198941 -0.062916607
0.049096007 -0.071688987 -0.062000006
-0.018186424 -0.068585433 -0.062000006
-0.016321216 -0.068606444 -0.063333333
0.045435008 -0.069666989 -0.06400001
0.047397412 -0.068626195 -0.063399971
0.049096007 -0.068647489 -0.062000006
-0.018915137 -0.065052994 -0.062428564
-0.016709594 -0.065193601 -0.063799977
0.047696009 -0.065038495 -0.062999994
0.049096003 -0.065171495 -0.062000006
-0.021288995 -0.060392 -0.062000006
-0.019195048 -0.061391667 -0.06249997
-0.016875995 -0.061012667 -0.063999981
0.047344547 -0.061422531 -0.062846154
0.04934429 -0.060888562 -0.062000006
-0.021288995 -0.0582195 -0.062000006
-0.019063061 -0.057822399 -0.062666625
-0.016875995 -0.057983749 -0.06400001
0.047350552 -0.05791454 -0.062909096
0.049791198 -0.057177294 -0.062000036
-0.021288997 -0.052572001 -0.062000006
-0.01908662 -0.054436814 -0.062812448
-0.016875995 -0.055387497 -0.06400001
0.048073579 -0.054383714 -0.063571423
0.050563205 -0.053951494 -0.062100023
-0.021288997 -0.049965005 -0.062000006
-0.019259853 -0.051024858 -0.063142806
0.048897002 -0.051493 -0.063999981
0.050741371 -0.050739907 -0.062909037
0.052572004 -0.049530499 -0.062000006
-0.021578664 -0.046778668 -0.062000006
-0.019783439 -0.047411557 -0.063444436
0.050898913 -0.047348727 -0.062909037
0.052572004 -0.046923496 -0.062000006
-0.022078995 -0.043566003 -0.062000006
-0.019778993 -0.043743331 -0.063555539
0.051182341 -0.043808494 -0.062833339
0.0530065 -0.043447498 -0.062000006
-0.021863552 -0.039914332 -0.062111139
-0.019644542 -0.040193185 -0.063636363
0.051514406 -0.040431593 -0.063799977
0.053658254 -0.039971493 -0.062000006
-0.02213436 -0.036179915 -0.062545449
-0.020172995 -0.036623001 -0.063799977
0.05193888 -0.03635687 -0.06387502
0.053875502 -0.036496494 -0.062000006
-0.022106662 -0.032942418 -0.063166648
-0.020337997 -0.033319 -0.063999981
0.05198729 -0.032947995 -0.06400004
0.054273676 -0.032998081 -0.062333316
-0.022355711 -0.029475929 -0.063142806
-0.020337999 -0.028991669 -0.063999981
0.052069675 -0.029712996 -0.06400004
0.054209676 -0.029489661 -0.062916607
0.056048002 -0.028240994 -0.062000006
-0.022464599 -0.026105935 -0.062933296
-0.020337999 -0.024665002 -0.06400001
0.052358005 -0.026828498 -0.06400001
0.054200668 -0.026015745 -0.062999994
0.056048002 -0.025633996 -0.062000006
-0.022254845 -0.022653924 -0.062846094
0.0541915 -0.022543244 -0.063083321
0.056048002 -0.022592494 -0.062000006
-0.022274999 -0.019002002 -0.062384605
-0.020337999 -0.019472001 -0.06400001
0.054182172 -0.01907216 -0.063166648
0.056482501 -0.019116994 -0.062000006
-0.024764998 -0.014772502 -0.062000006
-0.022567874 -0.01562419 -0.062562466
-0.020337999 -0.016876003 -0.06400001
0.054208729 -0.015707267 -0.063636303
0.056482501 -0.015641494 -0.062000006
-0.025199499 -0.012165502 -0.062000006
-0.022822844 -0.012227308 -0.063538432
0.055444501 -0.012128245 -0.063500017
0.057090599 -0.012426196 -0.062000036
-0.025199501 -0.0086895525 -0.062000006
-0.023030184 -0.0086213471 -0.063636363
0.05537457 -0.0088476529 -0.063571423
0.056699749 -0.0086895451 -0.062000006
-0.025199501 -0.0052137272 -0.062000006
-0.02288983 -0.0054156263 -0.06341666
0.054440003 -0.0050539062 -0.063444436
0.056221802 -0.0049530352 -0.062000036
-0.024938799 -0.0019985782 -0.062000036
-0.023038818 -0.001614292 -0.063454509
0.054154169 -0.0017328461 -0.06341663
0.056420427 -0.0015516893 -0.062000006
-0.024765 0.0017378929 -0.062000006
-0.023403 0.0017334968 -0.063250005
0.05465677 0.0016986603 -0.063692272
0.057206228 0.0015930762 -0.062000036
-0.024765 0.0050688977 -0.062000006
-0.023280999 0.0053500202 -0.062777758
0.05489634 0.0051479382 -0.063666672
0.057013229 0.0052620042 -0.062000036
-0.022467667 0.0086454712 -0.062866598
0.052358001 0.0099524045 -0.06400001
0.054279372 0.0087906495 -0.062999934
0.056221802 0.0084288642 -0.062000036
-0.022384504 0.012028999 -0.06249997
-0.020338003 0.012115998 -0.06400001
0.052358001 0.012116005 -0.06400001
0.054237422 0.012148672 -0.062666684
0.056047998 0.012165505 -0.062000006
-0.022129335 0.015620249 -0.062666684
0.052358001 0.015145005 -0.06400001
0.054136004 0.015590756 -0.063583285
0.056221802 0.015902206 -0.062000036
-0.022264924 0.01919315 -0.062615365
0.054135833 0.019055838 -0.063583314
0.056482505 0.019117005 -0.062000006
-0.022390787 0.022452284 -0.062357128
-0.020358501 0.022524998 -0.063500017
0.054163497 0.022531921 -0.063333333
0.056482501 0.022592507 -0.062000006
-0.021979902 0.025889698 -0.062100023
-0.019413836 0.026196914 -0.063666642
0.054228168 0.026029505 -0.062750012
0.056221794 0.025807807 -0.062000036
-0.021723503 0.029544497 -0.062000006
-0.019486004 0.029444499 -0.063666642
0.052384745 0.029439254 -0.063749999
0.054309998 0.029544504 -0.062000006
0.056047995 0.028241005 -0.062000006
-0.02157867 0.033310164 -0.062000006
-0.019158602 0.033026468 -0.063199967
0.051708598 0.033086501 -0.063600004
0.054309994 0.033020508 -0.062000006
-0.021723505 0.036496498 -0.062000006
-0.019074755 0.036413126 -0.063124955
-0.016876005 0.037213501 -0.06400001
0.051528666 0.036372669 -0.063666642
0.05422109 0.036608007 -0.062090933
0.056047995 0.037800003 -0.062000006
-0.021832129 0.039645623 -0.062000006
-0.019079503 0.039890688 -0.062999934
-0.016876005 0.0402424 -0.06400001
0.051817264 0.040092733 -0.063909054
0.054255161 0.039931085 -0.06249997
0.056047995 0.039971501 -0.062000006
-0.021289004 0.042144001 -0.062000006
-0.01910538 0.043420184 -0.062312484
-0.016114004 0.044204999 -0.063777775
0.051525097 0.044077102 -0.063699991
0.054273501 0.043418672 -0.062333316
0.056047995 0.042578503 -0.062000006
-0.019022737 0.046817802 -0.06219998
-0.016261822 0.047602907 -0.063545406
0.051608767 0.047476463 -0.063538402
0.053875495 0.046923503 -0.062000006
-0.018755086 0.050327081 -0.062000006
-0.015782291 0.050996218 -0.063428521
0.051528666 0.051095005 -0.063666642
0.053861868 0.050386377 -0.062124997
-0.018186433 0.053689282 -0.062000006
-0.015511472 0.054501932 -0.063399971
-0.013414005 0.054954998 -0.06400001
0.05144354 0.054434001 -0.06372726
0.053614795 0.054136205 -0.062000036
-0.017814005 0.057350997 -0.062000006
-0.015603255 0.057855066 -0.063249946
0.051060494 0.057983756 -0.06400004
0.053151324 0.057302788 -0.062000036
-0.017814005 0.061260998 -0.062000036
-0.015693357 0.061464883 -0.062823504
-0.013067806 0.061705202 -0.06400001
0.051449001 0.061928701 -0.063600004
0.053440992 0.060874779 -0.062000036
-0.017814005 0.063868001 -0.062000006
-0.015440362 0.064981572 -0.06249997
-0.012183577 0.065121002 -0.063785672
0.048608322 0.065195508 -0.06400004
0.050688412 0.064984508 -0.06341663
0.053151324 0.065316334 -0.062000036
-0.015027406 0.068446204 -0.06220001
-0.012314505 0.068315215 -0.063499928
0.048896987 0.067936338 -0.063999981
0.050740492 0.068519838 -0.062916666
0.053006489 0.068647511 -0.062000006
-0.015197172 0.072074242 -0.062333316
-0.012849228 0.071751326 -0.063555539
0.048896991 0.073129006 -0.06400001
0.05073199 0.071977012 -0.062999994
0.052861661 0.071833842 -0.062000006
-0.015187007 0.075496748 -0.062666625
-0.012732605 0.075353488 -0.063600004
0.048608329 0.075580671 -0.06400004
0.050800327 0.075548016 -0.062333316
0.052571993 0.075599007 -0.062000006
-0.015199757 0.079034746 -0.062249988
-0.01212588 0.07881438 -0.063624948
-0.0092312405 0.079475172 -0.06400004
0.048488744 0.078794383 -0.063750029
0.050817158 0.079048008 -0.062166661
-0.014511809 0.0822898 -0.062000036
-0.012153883 0.082467176 -0.06249997
-0.0086611127 0.082279362 -0.063624948
-0.0064907074 0.083081 -0.06400001
0.048513494 0.082299501 -0.063499987
0.050833989 0.082550503 -0.062000006
0.052571993 0.082985006 -0.062000006
-0.014338007 0.084723003 -0.062000006
-0.011859624 0.085886151 -0.062230766
-0.0086681563 0.085808381 -0.063249946
-0.0064907074 0.085677497 -0.06400001
0.048197139 0.085566573 -0.063571423
0.050585706 0.086150661 -0.062000006
0.052571993 0.085592009 -0.062000006
-0.011648008 0.089587636 -0.06218183
-0.0086639822 0.089229874 -0.063499957
-0.0064907074 0.089139 -0.06400001
0.047786437 0.089075565 -0.063555568
0.05048639 0.08958941 -0.062000006
0.052571993 0.088199005 -0.062000006
-0.011557208 0.0928047 -0.062000036
-0.0086652515 0.09270712 -0.063437462
-0.0060580079 0.092601001 -0.06400004
0.047414824 0.092663832 -0.063666642
0.050486393 0.092891596 -0.062000006
-0.011441341 0.096308999 -0.062000036
-0.0086759329 0.09629555 -0.062812448
-0.0060580079 0.096062757 -0.06400004
0.047629368 0.096124068 -0.063687444
0.050833989 0.096453764 -0.062000006
-0.011557208 0.099840805 -0.062000036
-0.0086804517 0.099814884 -0.062562466
-0.0058082282 0.099859491 -0.063199997
0.045434993 0.099956334 -0.063999981
0.047238488 0.099676095 -0.063249975
0.049964994 0.099927776 -0.062000006
-0.01138341 0.102796 -0.062000036
-0.0086816102 0.10330126 -0.06249997
-0.0059247091 0.10303 -0.063111067
0.045434993 0.10298501 -0.06400001
0.047278825 0.10323167 -0.062833279
0.049964994 0.103405 -0.062000006
-0.0082550766 0.10688251 -0.062000006
-0.0058095595 0.10673001 -0.06309998
0.045064274 0.10663573 -0.06400004
0.047302742 0.10675585 -0.062583297
0.049885988 0.10676455 -0.062000006
-0.0082550766 0.11035501 -0.062000006
-0.0052892361 0.11017466 -0.063199967
-0.0030290098 0.11121 -0.06400001
0.04500249 0.10991 -0.06400004
0.047294736 0.11020667 -0.062666625
0.04946842 0.11029287 -0.062000006
-0.0079292217 0.11350875 -0.062000006
-0.0052034971 0.11357374 -0.063124955
-0.0030290098 0.11336999 -0.06400001
0.045146655 0.11365833 -0.06400004
0.047262739 0.11360252 -0.062999934
0.049530491 0.11383501 -0.062000006
-0.0073861103 0.11861 -0.062000006
-0.0052073603 0.11712938 -0.062749952
-0.0030290103 0.1164 -0.063999981
0.044473544 0.11678445 -0.06400004
0.047076423 0.11734644 -0.062357128
0.04946842 0.11712144 -0.062000006
-0.0076757767 0.121075 -0.062000006
-0.0051084822 0.12078055 -0.062999964
0.044088878 0.12053556 -0.06400004
0.046900488 0.12072375 -0.062249988
0.049095988 0.120785 -0.062000006
-0.0079654269 0.12368333 -0.062000006
-0.0052357838 0.12437598 -0.06279999
-0.0028559309 0.12488 -0.06400001
0.041972984 0.12505333 -0.063999981
0.043964896 0.12465 -0.06372726
0.046911988 0.12422813 -0.062124997
0.049095988 0.12383001 -0.062000006
-0.0049340567 0.12752272 -0.062363625
-0.0025371541 0.12801 -0.063571423
0.041972987 0.128085 -0.06400001
0.04370432 0.128085 -0.063999981
0.046812057 0.12775335 -0.062266648
0.049095988 0.12904 -0.062000006
-0.0043447614 0.13121501 -0.062000006
-0.0018337753 0.13152307 -0.063461512
0.0012980885 0.13198 -0.06400001
0.041972987 0.13154501 -0.06400001
0.043625627 0.13142727 -0.06400001
0.046888743 0.13111499 -0.062374979
0.049269788 0.131476 -0.062000036
-0.0046030818 0.13477799 -0.062299997
-0.0017332395 0.13469376 -0.063562453
0.0016442977 0.13509399 -0.063999951
0.0038943882 0.13631 -0.06400001
0.041972987 0.13414 -0.06400001
0.043741737 0.13483252 -0.063583314
0.046911996 0.13465126 -0.062124997
0.049095988 0.13425 -0.062000006
-0.0047792452 0.138165 -0.062000006
-0.0017585556 0.13825354 -0.063588172
0.0017308404 0.13847001 -0.063999951
0.0044353134 0.138795 -0.06400004
0.044068489 0.13817899 -0.063799977
0.046601448 0.13799924 -0.062230766
-0.0043447623 0.14164001 -0.062000006
-0.001705781 0.14184333 -0.063199967
0.0016442968 0.14184333 -0.063999951
0.0044713714 0.14120834 -0.06400004
0.041972984 0.14236334 -0.063999981
0.043713287 0.141959 -0.063900024
0.046894614 0.14155 -0.062312484
0.049095988 0.14294 -0.062000006
-0.0043447623 0.145115 -0.062000006
-0.0018306199 0.14539725 -0.063166648
0.0016442966 0.14541867 -0.063999951
0.0038943873 0.14539 -0.06400001
0.041799992 0.14513001 -0.06400001
0.043777838 0.14524613 -0.063923031
0.046819758 0.14515589 -0.062294096
0.049095988 0.145115 -0.062000006
-0.0041999463 0.14830333 -0.062000006
-0.0017367429 0.14892666 -0.062333316
0.0018185675 0.14889066 -0.063599944
0.0040690871 0.149176 -0.063799977
0.036780987 0.15015 -0.06400001
0.041972987 0.148855 -0.06400001
0.043741647 0.14898166 -0.063583314
0.04700426 0.14865932 -0.062066674
0.049095988 0.14816 -0.062000006
-0.00097757822 0.1518475 -0.062000006
0.001636342 0.15229462 -0.062230766
0.0051951669 0.15241188 -0.063687444
0.0075724619 0.1525325 -0.06400001
0.041540317 0.15245999 -0.06400004
0.043756563 0.15249582 -0.06341663
0.046917737 0.15204562 -0.062062502
-0.00043449347 0.15424 -0.062000006
0.0017375 0.15552498 -0.062062502
0.0051945606 0.15585685 -0.063749939
0.0082215359 0.156645 -0.06400004
0.040473118 0.15592197 -0.063999951
0.043561731 0.1560425 -0.063166648
0.046601452 0.15537077 -0.062230766
0.0021723569 0.15874182 -0.062000006
0.0053224289 0.15926215 -0.063357115
0.0086573986 0.15929998 -0.063812435
0.01168332 0.16010666 -0.06400004
0.015144986 0.16054 -0.06400001
0.017740987 0.15967 -0.06400001
0.03983061 0.15932062 -0.063749939
0.043521449 0.15921848 -0.062307686
0.045909654 0.15872833 -0.062000006
0.0030412858 0.16119 -0.062000006
0.0052861185 0.16271251 -0.062000006
0.0086767441 0.16271 -0.062666625
0.012034186 0.16285267 -0.063799948
0.014712486 0.164 -0.06400001
0.037645984 0.164 -0.06400001
0.039851237 0.16286626 -0.063499957
0.043447487 0.16249502 -0.062000006
0.045619987 0.161625 -0.062000006
-0.00043449455 0.1664 -0.062000006
0.0018247816 0.16605401 -0.062000036
0.0056481957 0.165797 -0.062000036
0.0086869979 0.16592811 -0.062124997
0.012109786 0.16639064 -0.063066602
0.015497119 0.16631666 -0.063799948
0.018520085 0.16642299 -0.06400001
0.036874987 0.16645601 -0.063899994
0.039791603 0.16619921 -0.062999964
0.043447487 0.16597 -0.062000006
0.0099929851 0.16813999 -0.062000006
0.012513084 0.16953202 -0.062000036
0.015701985 0.16995198 -0.06279996
0.018440787 0.169521 -0.063799977
0.036801711 0.16944455 -0.06372726
0.039946988 0.16955498 -0.062312484
0.043447487 0.16944499 -0.062000006
0.045619987 0.16813999 -0.062000006
0.013468985 0.17162 -0.062000006
0.01582936 0.17250624 -0.062875003
0.017758984 0.17326249 -0.063499987
0.037111763 0.17342554 -0.063444436
0.040058389 0.17301202 -0.062000006
0.043012984 0.1722725 -0.062000006
0.019049235 0.17685375 -0.063750029
0.022068236 0.1776325 -0.06400001
0.033491988 0.17750201 -0.06400001
0.036283843 0.1766436 -0.063214242
0.039536987 0.17611815 -0.062000006
0.0099929841 0.18118 -0.062000006
0.019069318 0.18002267 -0.062466651
0.02250636 0.18005623 -0.06387496
0.025703385 0.18052897 -0.06400001
0.029559076 0.18062271 -0.06372726
0.032995187 0.18021998 -0.063666612
0.036486719 0.179998 -0.062533289
0.039102484 0.179875 -0.062000006
-0.001997716 0.18422799 -0.06220001
0.0065171835 0.18421501 -0.062000006
0.008904459 0.18368122 -0.062124997
0.010861984 0.18320334 -0.062000006
0.019207751 0.18322843 -0.062230766
0.022608381 0.18355866 -0.063533276
0.025986236 0.18363623 -0.063562453
0.029451719 0.18373331 -0.063066602
0.032932483 0.18372811 -0.063312441
0.036478482 0.18347184 -0.062249988
0.039102484 0.18334749 -0.062000006
-0.0017072329 0.18689707 -0.063352853
0.00043380371 0.18653999 -0.062750012
0.0063327635 0.18678001 -0.06280002
0.0086192554 0.18696554 -0.063277751
0.011668913 0.18738428 -0.062000006
0.016944984 0.189 -0.062000006
0.019442733 0.18736872 -0.062000006
0.022502044 0.18745528 -0.062294096
0.02602561 0.18738437 -0.062812448
0.029506456 0.18716237 -0.063058794
0.032953985 0.18731311 -0.062999934
0.036565084 0.18735152 -0.062000036
0.039378986 0.18718091 -0.062000006
-0.00043272658 0.18953 -0.06400001
0.0060579833 0.1891 -0.06400001
0.0099523831 0.19024999 -0.063999981
0.012074184 0.19117935 -0.06219998
0.016423583 0.19143 -0.062000036
0.019116983 0.19117001 -0.062000006
0.022592483 0.19117002 -0.062000006
0.026065048 0.19114564 -0.062062502
0.029525548 0.19104816 -0.062312484
0.032995734 0.19102439 -0.062374979
0.036206815 0.19088167 -0.062000006
0.0087570436 0.193914 -0.063200027
0.01213206 0.19434386 -0.062000006
0.016944984 0.19334 -0.062000006
0.019165205 0.19392 -0.062000036
0.022716627 0.19445859 -0.062000006
0.026068484 0.19464503 -0.062000006
0.029544486 0.19464502 -0.062000006
0.033020481 0.19464503 -0.062000006
0.035627477 0.194645 -0.062000006
0.012889649 0.198125 -0.062000006
0.015062149 0.198705 -0.062000006
0.023171818 0.19783501 -0.062000006
0.026068484 0.198125 -0.062000006
0.02953661 0.19807374 -0.062124997
0.033020481 0.198125 -0.062000006
0.035366781 0.19786401 -0.062000036
0.013435982 0.20153601 -0.063199997
0.015455268 0.20171928 -0.062000006
0.018806696 0.20227857 -0.062000006
0.022679383 0.20168196 -0.062000006
0.026068483 0.20159498 -0.062000006
0.029544484 0.20159498 -0.062000006
0.032412179 0.20142099 -0.062000036
0.013440982 0.20422 -0.062999994
0.015641481 0.20420501 -0.062000006
0.018682646 0.20420499 -0.062000006
0.022778694 0.20426714 -0.062000006
0.026068481 0.20420502 -0.062000006
0.029544482 0.20420502 -0.062000006
0.03171698 0.20377 -0.062000006
-0.01487699 -0.123395 -0.058499992
-0.012215739 -0.12323876 -0.060000032
-0.0087070726 -0.1235 -0.061000019
-0.0065303892 -0.12408 -0.061000019
0.036684923 -0.12401182 -0.060000032
0.038982011 -0.12351499 -0.057999998
-0.015018212 -0.12058 -0.058666617
-0.012310682 -0.12084998 -0.060230792
-0.0087070893 -0.12190501 -0.061000019
-0.0065303892 -0.121905 -0.061000019
0.037143011 -0.12101375 -0.060625017
0.039815012 -0.12047637 -0.05854547
-0.015432449 -0.11702999 -0.059076965
-0.012469446 -0.11768544 -0.060909092
0.037585676 -0.11855999 -0.061000019
0.040282741 -0.11717333 -0.059266686
0.042486012 -0.11651 -0.057999998
-0.017957991 -0.113005 -0.057999998
-0.01583763 -0.11365857 -0.059785753
-0.01349599 -0.114065 -0.061000019
0.040340014 -0.11389333 -0.060166687
0.043251283 -0.11367727 -0.058363616
-0.018125992 -0.110068 -0.058200002
-0.015864067 -0.11050154 -0.060307741
0.040937513 -0.11062 -0.060833365
0.043718763 -0.11016876 -0.05893749
-0.01837799 -0.106765 -0.058499992
-0.015938489 -0.10658214 -0.060500056
0.041359011 -0.107965 -0.061000019
0.043775577 -0.1066907 -0.059714317
0.045990009 -0.10643332 -0.057999998
-0.018359741 -0.10316125 -0.058999985
-0.01590199 -0.10353917 -0.06066671
0.04409451 -0.10334998 -0.060600042
0.046236008 -0.10297165 -0.058499992
-0.0187109 -0.099506997 -0.059181839
-0.016361848 -0.10034858 -0.060857177
0.044493608 -0.10022058 -0.06099999
0.046579204 -0.099447496 -0.059199989
-0.019311856 -0.096202396 -0.059266686
-0.01680479 -0.096562602 -0.06099999
0.044842009 -0.096649736 -0.061000019
0.046843734 -0.096268632 -0.059090972
-0.021461993 -0.091979995 -0.057999998
-0.019205684 -0.092747927 -0.05975008
-0.016978992 -0.094037503 -0.061000019
0.046943009 -0.092889994 -0.059727341
-0.021461993 -0.089351997 -0.057999998
-0.019130755 -0.089173287 -0.059705883
-0.016978992 -0.087507002 -0.061000019
0.047660381 -0.089647122 -0.060000002
-0.021461993 -0.086286001 -0.057999998
-0.019215994 -0.085589252 -0.059500039
0.048325006 -0.086200997 -0.061000019
0.049703177 -0.085413314 -0.058833331
-0.021628592 -0.082048595 -0.058200002
-0.019196119 -0.082013503 -0.060000032
0.048325006 -0.080540992 -0.061000019
0.050136093 -0.081968814 -0.059545487
-0.022132093 -0.078729495 -0.058699965
-0.019180743 -0.078463368 -0.060375065
0.048325006 -0.078364491 -0.061000019
0.050261755 -0.078668572 -0.059083313
-0.02202688 -0.075122774 -0.05844447
-0.019277329 -0.075099871 -0.060133427
0.048325006 -0.075752497 -0.061000019
0.050484363 -0.075005926 -0.059357136
-0.02231241 -0.071747907 -0.058583349
-0.019695811 -0.071610093 -0.06036368
0.051058259 -0.071567819 -0.059833378
0.052998006 -0.071831986 -0.057999998
-0.022731494 -0.06819088 -0.059000045
-0.019917618 -0.068242505 -0.061000019
0.051015172 -0.068018906 -0.060250014
0.052998006 -0.068327993 -0.057999998
-0.022421457 -0.064572841 -0.059153885
-0.020461995 -0.064868003 -0.061000019
0.050980672 -0.064487569 -0.060583383
0.053312723 -0.064562701 -0.058571428
-0.022709209 -0.061135005 -0.059500009
0.051132202 -0.061149396 -0.060800016
0.053475227 -0.061051548 -0.058999985
-0.022896424 -0.057517286 -0.059500009
0.051517669 -0.057757497 -0.061000019
0.053559504 -0.0576647 -0.059300035
-0.025241328 -0.05398434 -0.058333337
-0.022773458 -0.054181211 -0.060000062
0.051808003 -0.054855496 -0.061000019
0.054017145 -0.054077994 -0.058999956
-0.025372496 -0.05074463 -0.058625013
-0.022976998 -0.050681233 -0.060230792
0.05434493 -0.050787568 -0.059428602
-0.025312852 -0.047187146 -0.058571428
-0.0232674 -0.047143903 -0.060600042
0.054475497 -0.047066748 -0.060500056
0.056502003 -0.047303997 -0.057999998
-0.025707088 -0.043584548 -0.059090883
-0.023780396 -0.043291602 -0.060800016
0.054911006 -0.043579873 -0.060500026
0.056445502 -0.043755498 -0.058499992
-0.025905533 -0.040083233 -0.059384644
-0.023578567 -0.040127151 -0.060857177
0.0551612 -0.040347397 -0.060599983
0.056680668 -0.039923664 -0.058999985
-0.026195621 -0.036672503 -0.059625059
-0.023606196 -0.037194405 -0.060800016
0.055291004 -0.036569998 -0.061000019
0.057111464 -0.036551815 -0.059636384
-0.028469997 -0.033726007 -0.057999998
-0.026188996 -0.033171006 -0.05975008
-0.023944996 -0.033087254 -0.061000019
0.057235505 -0.033204246 -0.059250027
-0.026199309 -0.029690377 -0.059562564
-0.023944998 -0.029604003 -0.061000019
0.057434589 -0.029699162 -0.059416682
-0.02847 -0.025842002 -0.057999998
-0.026192559 -0.026191188 -0.059687555
-0.023944998 -0.024815002 -0.061000019
0.057905234 -0.026283532 -0.059846163
0.060006004 -0.025403995 -0.057999998
-0.028742999 -0.022469334 -0.058333337
-0.02617556 -0.022684691 -0.060000062
-0.023944998 -0.022203336 -0.061000019
0.058011085 -0.022680914 -0.060083359
0.060006004 -0.022775995 -0.057999998
-0.028850498 -0.019234126 -0.058999985
-0.026151871 -0.01917794 -0.06043756
-0.023944998 -0.019591002 -0.061000019
0.058382627 -0.019170621 -0.060625017
0.059855752 -0.019224245 -0.059249997
-0.028850248 -0.015735878 -0.058999985
-0.026339281 -0.015815359 -0.060428619
0.058338001 -0.015672995 -0.061000019
0.059825502 -0.015719494 -0.059499979
-0.029130897 -0.012071802 -0.058700025
-0.02702 -0.012202253 -0.060500026
0.058451146 -0.012013567 -0.060571432
0.060218003 -0.011955661 -0.058666646
-0.029413462 -0.0087058805 -0.059153885
-0.026999375 -0.0087089771 -0.060875028
0.058324225 -0.0085813506 -0.05988887
0.060646601 -0.0085762944 -0.058499992
-0.029302748 -0.0052480195 -0.058750004
-0.02702 -0.0052295895 -0.060500026
0.058067992 -0.0053513581 -0.060272783
0.060536668 -0.0053973058 -0.058444411
-0.029003251 -0.0019696776 -0.05825001
-0.02667618 -0.0016246315 -0.060272753
0.058245778 -0.0018881171 -0.060555577
0.060384002 -0.0017502347 -0.058499992
-0.028900875 0.0017514476 -0.058124989
-0.026607333 0.001744591 -0.060083359
0.05880275 0.0017429951 -0.060750008
0.060353752 0.0017493578 -0.058750004
-0.028879499 0.0052507222 -0.058499992
-0.026465151 0.0052660587 -0.060230851
0.058646601 0.0054897652 -0.060600042
0.06031286 0.0054376908 -0.058571458
-0.0284415 0.0087516475 -0.058499992
-0.0261725 0.0087239165 -0.060062557
-0.023945 0.0091424985 -0.061000019
0.058025088 0.0088323141 -0.060636401
0.060384002 0.0087512424 -0.058499992
-0.026205938 0.012228685 -0.059437543
-0.023945002 0.013060499 -0.061000019
0.057952087 0.012200338 -0.060583383
0.060368754 0.012249006 -0.058625013
-0.028470002 0.014891997 -0.057999998
-0.026228627 0.015736559 -0.059000045
-0.023945002 0.015672999 -0.061000019
0.058057543 0.015574369 -0.06036365
0.0601332 0.015492806 -0.058400005
-0.025946002 0.019147076 -0.058615386
-0.023945002 0.018720331 -0.061000019
0.058442127 0.01918963 -0.060124993
0.060006 0.019272007 -0.057999998
-0.025711821 0.022690179 -0.058999985
-0.023945002 0.023509499 -0.061000019
0.058397494 0.02266163 -0.060500026
0.060005996 0.022776006 -0.057999998
-0.025786838 0.026222749 -0.059083372
-0.02366267 0.026420997 -0.060833365
0.058035728 0.026264461 -0.060545504
0.060005996 0.026280005 -0.057999998
-0.02580817 0.029744582 -0.058666646
-0.023539376 0.029642249 -0.060375035
0.057648994 0.029739404 -0.060200065
0.060005996 0.029784007 -0.057999998
-0.025379006 0.03325462 -0.058499992
-0.023296202 0.032979496 -0.060000032
0.057578053 0.033150442 -0.060062528
0.060005996 0.031974003 -0.057999998
-0.025354004 0.036718 -0.059000015
-0.023521503 0.036587998 -0.060750008
0.055290997 0.035264004 -0.061000019
0.057695795 0.036571402 -0.059799999
-0.025347501 0.040205244 -0.059125006
-0.023418628 0.04041025 -0.060625017
0.057981994 0.04010709 -0.060333341
0.060005996 0.041610003 -0.057999998
-0.025320005 0.043574996 -0.058428556
-0.022751272 0.043670192 -0.060466737
0.05777185 0.043748647 -0.060000092
0.060005996 0.044676006 -0.057999998
-0.025258005 0.047011998 -0.057999998
-0.022680564 0.047102373 -0.060125023
-0.020462004 0.048324998 -0.061000019
0.055290997 0.047018752 -0.061000019
0.057635184 0.047155689 -0.059562594
0.060005996 0.047304004 -0.057999998
-0.024966003 0.050807998 -0.057999998
-0.022714879 0.050667934 -0.059375048
-0.020244256 0.0507195 -0.061000019
0.055290997 0.050501756 -0.061000019
0.057657681 0.050668135 -0.059375048
0.060005996 0.049932003 -0.057999998
-0.022740318 0.054223496 -0.058812529
-0.01989045 0.054154217 -0.060777783
0.054917712 0.05379786 -0.061000019
0.057686754 0.05418938 -0.059125006
-0.02238542 0.057529408 -0.058583349
-0.019614669 0.05753525 -0.060416728
0.054917712 0.057529431 -0.061000019
0.057263996 0.057699841 -0.058999985
-0.022016892 0.061092436 -0.058666676
-0.019611336 0.061011586 -0.060500056
0.055019159 0.060971171 -0.060833365
0.056897622 0.061274253 -0.058375001
-0.021812862 0.064937428 -0.058571428
-0.019365432 0.064631924 -0.060428619
-0.016979005 0.065738998 -0.061000019
0.054910995 0.064498253 -0.060500026
0.056897622 0.064774886 -0.058375001
-0.022026893 0.068413109 -0.058444411
-0.019198254 0.068062253 -0.059937537
-0.016804805 0.068177208 -0.06099999
0.054917712 0.068102576 -0.061000019
0.056997769 0.068075567 -0.058777779
-0.021681007 0.071175002 -0.057999998
-0.019232132 0.071678944 -0.059062481
-0.016818408 0.071194798 -0.060599983
0.054759659 0.07160823 -0.060555577
0.056883495 0.071759887 -0.058500022
-0.018931856 0.075285539 -0.059000015
-0.016979007 0.074881747 -0.061000019
0.05425027 0.075114079 -0.060285747
0.056897618 0.075279005 -0.058375031
-0.019121878 0.078488059 -0.059666723
-0.016979007 0.078364499 -0.061000019
0.054130521 0.078536153 -0.060466737
0.056883495 0.078760892 -0.058499992
-0.019132143 0.082025141 -0.059399992
-0.016305564 0.08220467 -0.060888886
0.054152921 0.081881948 -0.060266733
0.056654595 0.08204861 -0.058200002
-0.018517785 0.085587665 -0.058666676
-0.015881008 0.085565999 -0.060357213
-0.013496008 0.086200997 -0.061000019
0.054405682 0.085416004 -0.059923142
0.056501992 0.084972009 -0.057999998
-0.018133208 0.0890892 -0.057999969
-0.015633008 0.089142352 -0.059882432
-0.013350842 0.089103341 -0.061000019
0.054063581 0.089263894 -0.060058862
-0.018244008 0.092825167 -0.058166683
-0.015794877 0.092582598 -0.059933364
-0.013205674 0.093457006 -0.061000019
0.054022789 0.092884593 -0.059866667
-0.017958008 0.096360996 -0.057999998
-0.015713634 0.096021488 -0.05975008
-0.013122723 0.096836284 -0.061000019
0.05404849 0.096436732 -0.05985716
0.056501996 0.096799016 -0.057999998
-0.015735947 0.099650934 -0.059062541
-0.013205676 0.10027834 -0.061000019
0.051807992 0.10013326 -0.061000019
0.054150242 0.099780492 -0.059500039
0.056501996 0.10030234 -0.057999998
-0.015437394 0.1030746 -0.058923095
-0.01245111 0.10378899 -0.06099999
0.051807992 0.10361501 -0.061000019
0.054248393 0.103164 -0.059400052
0.056501992 0.10336751 -0.057999998
-0.015432471 0.10667462 -0.059076965
-0.012171675 0.10686333 -0.060600042
-0.010013009 0.107095 -0.061000019
0.051633786 0.10735601 -0.06099999
0.054204363 0.10665812 -0.059000015
-0.015236828 0.11015546 -0.058454514
-0.012344223 0.11015215 -0.059857219
-0.01001301 0.1105825 -0.061000019
0.051227327 0.11063112 -0.06099999
0.054040201 0.11007715 -0.058785796
-0.01467301 0.1134425 -0.057999998
-0.012151423 0.11365765 -0.059529454
-0.0094689233 0.11439125 -0.061000019
0.051398739 0.11412251 -0.060750008
0.053829655 0.11378417 -0.058416665
-0.01445401 0.117385 -0.057999998
-0.012230261 0.11726313 -0.059437513
-0.0087941773 0.11745801 -0.061000019
0.051227327 0.11769 -0.06099999
0.053736258 0.11721638 -0.05854547
-0.015200724 0.12066572 -0.058142871
-0.012216012 0.12061998 -0.060000062
-0.0093165701 0.120855 -0.06099999
0.050857808 0.12091091 -0.061000019
0.053766992 0.12064501 -0.059000045
-0.012113319 0.12384 -0.060076952
-0.0091424314 0.12486299 -0.06099999
0.05061679 0.12437802 -0.060733378
0.053784903 0.12418502 -0.058833301
-0.012246825 0.12770376 -0.058750004
-0.0087153027 0.12766835 -0.060583383
-0.0063127363 0.12864751 -0.061000019
0.048324987 0.12669 -0.061000019
0.050615992 0.12768929 -0.060500056
0.053976141 0.12791769 -0.058307648
-0.011816233 0.13074777 -0.05844447
-0.008727436 0.13090561 -0.059875071
-0.0060967109 0.13150875 -0.060874999
0.051061824 0.13102749 -0.060500056
0.054285489 0.13133375 -0.058249921
-0.011116412 0.13471 -0.058400005
-0.0086539472 0.13457 -0.059705943
-0.0062401779 0.13467501 -0.061000019
0.050843377 0.13490076 -0.06061542
0.05407856 0.1347257 -0.058428496
-0.010950012 0.1384075 -0.057999998
-0.0087236855 0.13803563 -0.060125083
-0.006530412 0.13844499 -0.061000019
0.048324987 0.13888 -0.061000019
0.050528254 0.13827467 -0.060466737
0.054167323 0.13834733 -0.058533311
-0.010950011 0.14147334 -0.057999998
-0.0088200923 0.14154467 -0.059600055
-0.006095062 0.14192499 -0.061000019
0.050651189 0.14154668 -0.060400069
0.054078557 0.14166571 -0.058428526
-0.010950013 0.1441 -0.057999998
-0.0085574128 0.14502072 -0.058928609
-0.0060347551 0.14526428 -0.060857177
0.050977223 0.14508691 -0.06061542
0.053838655 0.14531833 -0.058333308
-0.0080934633 0.14829502 -0.058625013
-0.0058672577 0.1488889 -0.059888899
0.050867144 0.14891078 -0.060384661
0.053838659 0.14882 -0.058333337
-0.0074460134 0.15242499 -0.057999998
-0.0052430755 0.15242 -0.059437484
-0.0025033257 0.1525925 -0.061000019
0.050605234 0.15246627 -0.060000092
0.053570207 0.15224555 -0.058111101
-0.0074460134 0.15549 -0.057999998
-0.0052428637 0.15591313 -0.059437543
-0.0018291123 0.15598468 -0.060866684
0.048324984 0.15628999 -0.061000019
0.050648559 0.15587357 -0.059571505
0.053435981 0.15592751 -0.057999998
-0.0049844137 0.15911201 -0.058999956
-0.0016438293 0.15929 -0.060230851
0.000783642 0.159954 -0.06099999
0.047657587 0.15961501 -0.060700029
0.050814517 0.15926266 -0.058800012
0.053173184 0.15917 -0.057999969
-0.0043790271 0.16289501 -0.058125019
-0.0017485956 0.1629722 -0.059222281
0.0016547045 0.16299933 -0.060733378
0.0039181858 0.16282499 -0.061000019
0.047233276 0.16304286 -0.060714334
0.050764296 0.16279249 -0.058437496
-0.0041172146 0.166178 -0.057999969
-0.0019660161 0.1661 -0.059666693
0.0016792313 0.16549715 -0.061000019
0.0041358606 0.16608751 -0.061000019
0.047043238 0.16638936 -0.060750037
0.050375629 0.16631071 -0.058571458
0.047053419 0.16991213 -0.060642898
0.050217316 0.16970557 -0.058555573
0.043971106 0.1739275 -0.061000019
0.047129057 0.17323788 -0.05985716
0.049752984 0.17303999 -0.058333337
0.041010585 0.17736401 -0.06099999
0.043564048 0.17686689 -0.060687542
0.047297653 0.17668468 -0.059000075
0.049493983 0.17651333 -0.057999998
0.013522984 0.18190999 -0.060000002
0.015967984 0.18131167 -0.060833365
0.040923484 0.180235 -0.061000019
0.043580733 0.18041877 -0.060500056
0.047233485 0.18018501 -0.058750093
-0.00065306114 0.18437749 -0.061000019
0.001597675 0.18433888 -0.060777783
0.006248951 0.18382333 -0.060333341
0.007408584 0.183035 -0.060500026
0.012497523 0.18384385 -0.06076926
0.01568811 0.18391001 -0.060500056
0.017849984 0.18459499 -0.061000019
0.040923484 0.183725 -0.061000019
0.043502584 0.18385868 -0.060400069
0.046644587 0.18360099 -0.058499992
-0.00043537625 0.1859 -0.061000019
0.0021839833 0.1872509 -0.059727281
0.00423135 0.18704833 -0.058333337
0.013321782 0.18694401 -0.06099999
0.01568611 0.18736936 -0.060562551
0.017849984 0.187205 -0.061000019
0.041068647 0.186915 -0.061000019
0.043619737 0.18734124 -0.060062557
0.04665399 0.187489 -0.058399945
0.0010205167 0.19047333 -0.059666663
0.013495984 0.189815 -0.061000019
0.015242566 0.19074833 -0.060833365
0.037440479 0.19199 -0.061000019
0.040093187 0.19082399 -0.060866684
0.043681767 0.19088428 -0.059357196
0.046514481 0.19054624 -0.05825001
0.0016322084 0.1948491 -0.058363587
0.0055971467 0.19461454 -0.059363663
0.0076963161 0.19532001 -0.060666651
0.015572523 0.19440541 -0.061000019
0.01901065 0.19548 -0.061000019
0.037440479 0.19417 -0.061000019
0.040084105 0.19431689 -0.060625046
0.043841444 0.19435267 -0.058533311
0.046208985 0.1938175 -0.057999998
0.0017503977 0.19775376 -0.058562458
0.0051567033 0.19766599 -0.059000045
0.013060483 0.196785 -0.061000019
0.01589065 0.19729249 -0.061000019
0.019155733 0.19765501 -0.061000019
0.022203382 0.19800301 -0.06099999
0.037179381 0.19782898 -0.06099999
0.04007848 0.19777875 -0.060687542
0.043375697 0.19781144 -0.058571428
-0.00073001767 0.20192333 -0.057999998
0.001837996 0.20131734 -0.058333278
0.0051277042 0.20117787 -0.058285683
0.016543733 0.2004825 -0.061000019
0.019228317 0.20077252 -0.061000019
0.021913314 0.20011999 -0.061000019
0.034175482 0.20178749 -0.061000019
0.036607482 0.20134003 -0.060500056
0.040160898 0.20124333 -0.059666693
0.043310482 0.20123799 -0.058599979
-0.00065701792 0.20520499 -0.057999998
0.0017504949 0.20485625 -0.058312446
0.0042323656 0.20462501 -0.058166683
0.020461982 0.20418 -0.061000019
0.021332981 0.20418 -0.061000019
0.033425875 0.20437333 -0.06099999
0.036746059 0.20446154 -0.060000062
0.040220421 0.20459871 -0.058937579
0.043051098 0.20494223 -0.058222204
-0.01892299 -0.12277333 -0.055666655
-0.016694989 -0.12300999 -0.056500018
0.038183011 -0.12508 -0.057000011
0.040682208 -0.124415 -0.056500047
0.043949701 -0.12445845 -0.055153847
-0.018921889 -0.12083401 -0.055700004
-0.016683323 -0.12117168 -0.056833357
0.041342814 -0.121746 -0.057000011
0.043965656 -0.12090141 -0.056142807
-0.018727388 -0.117106 -0.056200027
-0.01711599 -0.11806 -0.057000011
0.044003479 -0.11769076 -0.056846142
0.046530675 -0.11610666 -0.055333316
-0.019338692 -0.113831 -0.056300014
0.045029409 -0.114374 -0.057000011
0.047375832 -0.11366 -0.055999964
-0.021856489 -0.10972 -0.055666655
-0.019754091 -0.110622 -0.056900024
0.047471188 -0.11036705 -0.056529433
0.049793012 -0.11015999 -0.055000007
-0.02253188 -0.10639778 -0.055888891
-0.020188991 -0.1070875 -0.057000041
0.047778234 -0.10681153 -0.056230754
0.049759675 -0.10700666 -0.055333316
-0.022818191 -0.10336534 -0.056466639
-0.020188991 -0.10357749 -0.057000041
0.048109338 -0.10339665 -0.05622226
0.049793009 -0.10223 -0.055000007
-0.025091991 -0.0990455 -0.055500001
-0.022830993 -0.099882506 -0.056812465
-0.020452391 -0.10032721 -0.057000011
0.048384406 -0.10019319 -0.056800008
0.049988255 -0.099537745 -0.055249989
-0.025116991 -0.097383 -0.055000007
-0.02286764 -0.096297562 -0.056588203
0.048716009 -0.096554488 -0.057000011
0.050574336 -0.096161418 -0.056000024
-0.025116993 -0.092094995 -0.055000007
-0.023005607 -0.09286385 -0.056692302
0.048716009 -0.093481995 -0.057000011
0.050940134 -0.092521265 -0.055866629
-0.025091993 -0.088922255 -0.055499971
-0.023189902 -0.089445278 -0.056818187
0.048716009 -0.089092992 -0.057000011
0.051036872 -0.089142799 -0.056066662
-0.025083659 -0.085811995 -0.055666655
-0.0231333 -0.085946612 -0.056846142
0.051524632 -0.086019114 -0.056375057
0.053318009 -0.085044995 -0.055000007
-0.025079492 -0.082717255 -0.055750012
-0.02334081 -0.082629733 -0.056999981
0.052051406 -0.082773387 -0.057000011
0.053366609 -0.082378998 -0.056200027
-0.025377326 -0.078622833 -0.055666655
-0.023846326 -0.078999005 -0.057000011
0.052227009 -0.078998998 -0.057000011
0.05400246 -0.079022996 -0.056090891
-0.025757104 -0.075118452 -0.055888891
-0.023762707 -0.075676143 -0.057000041
0.052227009 -0.076365992 -0.057000011
0.05440814 -0.075324662 -0.056333303
-0.026142301 -0.07179454 -0.056153834
-0.024138995 -0.071977004 -0.057000011
0.054972012 -0.071827739 -0.055999964
-0.026344124 -0.068243794 -0.056266636
0.054811094 -0.06838353 -0.05672729
0.056843009 -0.067418993 -0.055000007
